# 3D point list with one line of data per point:
#   POINT3D_ID, X, Y, Z, R, G, B, ERROR, TRACK[] as (IMAGE_ID, POINT2D_IDX)
# Number of points: 450, mean track length: 2
1358 -5.5302193992472999 8.4350148720757847 22.82210691439246 183 159 131 0.21399356252415186 1 4287 2 4238
249 -10.088601371280832 -7.5144411779873836 24.505002834055137 100 70 41 0.070600313018416655 1 389 2 376
250 -9.8979922866386332 -7.4987894306770215 24.4475824730361 69 54 40 0.023473253491878166 1 390 2 377
1263 1.9454594263758611 8.5181989493313264 26.06816795391131 95 101 115 0.004347994687613147 1 4050 2 3959
380 -4.3896248316234638 -5.2421949167828616 23.012379534138557 96 70 49 0.91003810080866543 1 717 2 737
251 -6.1508953046141297 -7.3331058843111627 23.89792008536859 72 63 53 0.037936799096524046 1 391 2 391
252 -5.6495489999191086 -7.2103361362076086 23.487834561727023 128 108 87 0.089011412028713072 1 392 2 393
845 -0.53963221777457737 5.1206598566444432 31.934138481871596 66 65 63 1.9482555141193525 1 2948 2 3048
1249 11.578112831124189 8.7162838541183927 27.441867771245992 145 126 108 0.058855453950172429 1 4012 2 3848
374 -6.3167830831799252 -5.513219427462678 23.716423252798858 76 60 47 0.054550663481149959 1 698 2 711
253 -9.0968337884518888 -7.4459156212345148 24.358323569704236 77 62 49 0.21231870473851622 1 399 2 383
254 -4.0120364849046419 -7.3311896779132608 23.997511197056639 101 93 82 0.019570080314562588 1 400 2 411
368 -7.0887640527984646 -5.2614630711243286 22.320304144180042 84 76 67 1.4116852201553918 1 688 2 696
1356 7.7624837249657421 9.4706958690192469 25.901764087295071 166 157 143 0.4488402439026154 1 4283 2 4092
255 12.17296855913933 -7.4626424303611527 24.752574655143146 118 88 63 0.16277949902426714 1 406 2 457
257 -5.8993860447931636 -7.2049718158729927 23.691187694458392 221 202 179 2.066083706111689 1 414 2 392
688 -9.3289514929348787 1.6818789850143827 23.096547664570398 147 123 95 0.22683774165977089 1 2323 2 2581
259 -2.0502888253277129 -7.371686515612585 24.250044699994294 112 98 83 1.9869399080906329 1 416 2 413
261 -9.5189279835324854 -7.2939591719657786 24.328660735640259 137 117 95 0.21389586528084462 1 421 2 417
692 -4.4836215938936652 1.9470421331792367 24.936266019285998 128 102 78 0.80959281425968821 1 2359 2 2584
263 -7.6793847078066513 -7.2129125823282809 24.11280788115058 206 187 163 0.30414715560787564 1 423 2 428
265 -5.2721129427729538 -7.0643481067985308 23.548568480846665 135 114 97 0.28370113121268076 1 425 2 429
696 -5.5941194130221481 1.7763265802525094 22.658497647376883 151 125 99 0.0059484143672236898 1 2369 2 2594
267 0.4554857484444812 -7.5241848112378671 24.999782822475769 141 124 103 0.99282268031416288 1 427 2 435
269 12.368854088632146 -7.3974102998783344 24.780834015047532 110 96 114 1.1577998438612775 1 429 2 462
700 -1.5725453778840432 3.1776404797585114 39.430812708728581 108 92 81 0.28905199824416417 1 2391 2 2551
271 -1.917606269046799 -7.1430945501446574 23.896311219421015 180 167 154 0.57730284404451615 1 433 2 442
273 -7.331812884106256 -7.1126028659523843 24.168759156599311 73 66 60 0.63353445219562698 1 440 2 455
640 -6.7242858647228827 0.82419733398601047 22.665808215448919 85 65 50 0.32162926780219914 1 2061 2 2293
275 12.692064028828549 -7.3114590741762324 24.983717988890355 108 100 133 0.10521714682744981 1 443 2 495
277 -0.71989685576234719 -7.2629793894237107 24.74825788250995 183 162 137 0.1831888397901964 1 454 2 473
644 -7.3512418803710009 0.88003794889212072 22.624519956431467 145 122 100 0.058108160758395727 1 2083 2 2309
279 -8.8835221247060918 -7.0542458469494109 24.13834506543887 75 64 53 0.017884533940627303 1 460 2 453
281 -6.8629870551713674 -6.9963347133033862 24.050117624564564 172 149 124 0.032565448819783488 1 466 2 463
648 -5.6929204597787679 0.93003341760288138 22.626163542543523 100 70 49 0.4302087220109726 1 2102 2 2310
283 -5.4477159626395819 -6.8614520477694221 23.724553824834473 84 62 46 0.11183775540177934 1 470 2 479
285 -5.1009359027323615 -6.8662667285644305 23.729215310873293 155 138 115 0.96588491889043182 1 478 2 472
652 -1.9456553258231994 1.8117617616092461 39.106033468941355 112 90 72 0.41588988799728344 1 2134 2 2312
287 -8.5482500430169797 -6.9381131018012647 24.258493278369546 103 91 75 0.27689450893213985 1 484 2 488
289 -1.6786932479950185 -6.8560841334995644 23.85231894060426 161 146 127 0.72299744132591837 1 487 2 494
592 -8.515851068937927 -0.17906555983069297 23.084591782377146 65 62 59 0.25108334828397405 1 1725 2 1947
291 12.937511616563629 -7.0744474900825605 24.927719858450654 99 87 112 0.05276858117082274 1 489 2 526
293 -8.3640547798404494 -6.9085332824240764 24.208088565295327 149 134 119 0.27652891834420501 1 493 2 489
596 -1.7327531762755324 -0.35774116924436766 40.313656847749577 80 61 49 1.0588530365438773 1 1741 2 1871
295 -4.0939157247901941 -6.7214940683408413 23.676781797572755 91 72 57 0.74161798914281285 1 495 2 506
297 -1.9975337744022468 -6.7907941349416951 23.81154753791764 147 130 108 0.1782813891421838 1 497 2 502
600 -6.1707262690770497 -0.028314740619875278 22.887004240901749 103 73 47 0.68149252638716173 1 1781 2 1999
299 -5.2723577160776225 -6.6414949266433849 23.603946760619792 138 117 92 0.46352154091793363 1 507 2 514
301 -7.1862244650501026 -6.7554362329333069 24.118723034902423 114 100 84 0.36487038991219956 1 513 2 512
604 -7.0374697087742124 0.094393627233664998 22.822259849747919 71 60 51 0.34986453843270593 1 1830 2 2035
303 -3.6050627505758763 -6.6238729622690826 23.740087927907044 108 96 85 0.086636276381651056 1 518 2 525
305 -4.8250871227180996 -6.4923925829863034 23.360935962558894 116 90 66 0.1835769536127051 1 531 2 524
672 -8.48098649962472 1.3321174361262498 22.858212388371058 128 105 82 0.6841122396213648 1 2227 2 2451
307 -0.24278267972494999 -6.8096032151418981 24.591171907081865 152 130 104 0.48381509490225894 1 533 2 547
309 -7.5851721520231674 -6.641169840144725 24.214406219303829 142 125 103 0.35198215433328006 1 537 2 537
676 -1.454947000134863 2.3775420034313521 39.445831277415529 100 81 67 0.097257025588976087 1 2241 2 2399
311 -7.923290327531876 -6.5836406655674473 24.078362685426182 135 114 90 0.08859476858634055 1 541 2 536
313 -4.3802955701358126 -6.3216828510421541 23.339965422055556 67 61 55 0.63478785356852729 1 547 2 563
680 -5.6297066719167326 1.4408225259123149 22.740396306738152 141 120 99 0.25352655967282062 1 2266 2 2484
315 -1.3759617997002311 -6.750936219144605 24.717654658208058 144 120 100 0.83542765470841429 1 549 2 554
317 -6.0052301564645694 -6.4241872961960649 23.754034965587092 89 75 61 0.035407482373327977 1 553 2 557
684 0.35118733349005632 2.691099957165334 41.287161969805801 120 102 85 0.25607445654306882 1 2274 2 2429
319 -6.4942865262388825 -6.3787869050614727 23.789265337760185 206 189 170 0.52857624280405013 1 558 2 567
321 -5.6896653009429281 -6.3212210246281897 23.67994358245198 158 133 108 0.3499319378849185 1 561 2 576
752 -7.9592054882299728 2.62036330098204 23.232400372046691 140 124 109 0.47568070560695197 1 2639 2 2846
323 -2.6250355371466454 -6.321310924805303 23.801978962823014 135 117 95 0.26754136693711816 1 567 2 584
325 -8.1680924878124603 -6.3371708397853723 24.060919527687172 77 70 60 0.21844502356864798 1 576 2 580
756 16.665267325805694 3.3507109446822541 29.96992593649669 163 143 116 0.36423518749220485 1 2653 2 2686
327 -4.6873026375169493 -6.1325432208575696 23.391521620067746 96 85 74 0.58697212812636212 1 578 2 595
329 -1.2312309489926434 -6.5811049992488613 24.951314113256775 98 79 65 0.41188818661158699 1 581 2 589
760 -1.0999081551337417 4.5974513187137953 39.523280449840087 103 95 88 0.98308948699931609 1 2682 2 2791
331 -3.439239521305824 -6.1828793543891756 23.617224854575444 131 109 85 0.13547502914695131 1 588 2 596
333 -1.5910135196810442 -6.4144454328412923 24.731178412501425 58 46 37 1.4022116491838656 1 597 2 600
764 -6.9319090632756586 2.6911768511017242 22.765429045644026 107 82 65 1.7793530736521486 1 2698 2 2853
335 -8.6693452691966257 -6.1412306812200885 24.11595771321354 216 184 155 0.71484026235818332 1 603 2 620
1062 11.581191979722478 7.2596297979443909 29.519283699637526 151 123 98 1.3567407737647348 1 3531 2 3463
337 -4.317337830469401 -5.9262531581021065 23.167488705892602 102 76 55 0.067722843129363164 1 605 2 623
704 1.9861676464205171 3.1673103726282377 39.887707866751207 106 99 89 1.0598138754571576 1 2396 2 2519
339 -0.81734420460257251 -6.327651290761259 24.802569592880083 152 130 105 0.45757608422099721 1 607 2 634
341 -6.1455755075330245 -6.054260517554491 23.771580432144319 59 49 40 0.24315949255230307 1 609 2 622
708 -5.1348003683185208 2.0331617732792062 23.632028173309184 104 76 55 0.76033108321935838 1 2435 2 2637
1060 10.811321192635159 7.0733937408200065 28.96864821887608 213 196 182 0.094147011786084173 1 3529 2 3446
343 -3.8210694768723932 -6.0076440061700271 23.601704230350563 144 124 102 1.1501839863873426 1 613 2 624
344 -2.4465694291556686 -6.0877128761293182 24.163812357750576 150 131 105 0.63313211346233211 1 615 2 642
553 -7.8006846197968533 -0.98392440242339729 22.773365411488626 120 97 76 0.065666631729178984 1 1442 2 1640
1070 13.624986172127651 6.9400445944857161 28.194261504264006 179 164 148 0.079585198328655668 1 3549 2 3431
345 -0.57326653428113972 -6.2376737893491825 24.943368101604044 133 87 46 1.9014617713334563 1 616 2 666
712 1.3123423291712426 3.694338421747406 41.621576901118338 40 44 45 0.29152825123997661 1 2448 2 2606
346 -8.8095031837772027 -5.8158809799248194 23.047346026438056 218 207 190 0.78559301221684885 1 621 2 618
347 -7.1280387541098822 -6.0008381271927025 23.854540569057281 137 116 91 0.11827252834110302 1 622 2 630
349 -3.4832354599751012 -5.8528812482346799 23.457093330075352 105 84 64 1.232555344380629 1 624 2 660
716 -8.0454987926409007 2.1507115956002796 22.859598971975217 135 109 81 0.27099307014866136 1 2490 2 2724
1225 -0.88858576702430891 7.570583680152505 24.609916847730126 59 43 33 0.26851292348447531 1 3948 2 3892
350 -1.9703296655327296 -5.998736087330526 24.010748624390697 85 60 39 1.0346602731652421 1 625 2 661
1068 -1.7762253062711786 7.2392319828807929 29.256891364227783 27 27 26 0.60914342195644511 1 3547 2 3540
351 -4.2837971829840074 -5.7570156543514459 23.154786745765104 131 110 88 0.16172309393999351 1 635 2 655
353 -6.3574186308834841 -5.8770668690756578 23.814231031514076 122 89 57 0.82617467918196552 1 644 2 654
656 -1.0753330040908837 1.9096740815214881 39.177586385626007 107 89 71 1.0532061638383226 1 2143 2 2341
355 -4.9963863674899107 -5.7226259046164802 23.365750085048937 131 94 63 0.58551385186713201 1 652 2 665
357 -4.0451461326903777 -5.6138358822315304 23.177368167305151 168 149 125 0.22415185771502022 1 654 2 685
660 -5.6902760300184534 1.1539471534344365 22.550629115060747 130 89 60 1.3898582494016145 1 2155 2 2395
359 -4.2500517338929233 -5.5706645153980849 23.140687647169486 170 147 123 0.2359031882877976 1 662 2 690
361 -7.5062135870420761 -5.3615016893570289 22.553964173590582 169 156 137 0.19715352952552909 1 673 2 694
664 -8.0632686764036183 1.2015173082141457 22.742282561796522 156 133 109 0.55652936022246946 1 2176 2 2424
363 -7.7210761459725843 -5.3280784537610986 22.417762879900135 136 120 104 0.76784828469029232 1 678 2 688
365 -3.7428154523060853 -5.467840917192679 23.117936371951306 185 166 143 0.11045124169940385 1 681 2 705
668 -5.3688324929183091 1.3037402945919454 23.105461292690087 128 93 62 0.020803377652721694 1 2206 2 2425
367 -7.337220502291065 -5.3211083977518827 22.511251030738254 131 116 100 0.85608144947365217 1 684 2 695
369 -5.2382647793027521 -5.5144539993607031 23.627427436882588 63 48 33 0.30477271743432682 1 689 2 713
736 -6.4235880445506837 2.3130054238762385 22.642257473867563 116 106 97 0.77346258952395297 1 2577 2 2761
371 -4.2816815855259707 -5.4216083801697641 23.213830746454487 149 122 97 0.15621291818036043 1 691 2 715
373 -6.6678958301447189 -5.3941726873409213 23.290195327034905 74 57 41 0.47176546468048175 1 697 2 723
740 -6.8866000606306104 2.336098853911365 22.622753844706732 102 86 75 1.0057189448409587 1 2589 2 2767
375 -6.5187125766841607 -5.4545842546450807 23.61508369128633 82 69 57 0.05179283907082502 1 699 2 724
377 -8.0757365648558377 -5.1078363404267719 22.376208119074011 172 157 133 0.61148701859213883 1 701 2 735
744 -7.0682238003611877 2.4676888488143618 22.797444987902544 152 128 102 0.36026260100088231 1 2607 2 2818
379 -5.0307818056792373 -5.3524006552762575 23.579688424469683 54 46 39 0.31114638217595997 1 714 2 741
381 -8.7966821401949673 -5.0688672712109399 22.571774628851099 125 109 89 0.15029571985738621 1 718 2 746
748 -8.0982014016363983 2.5406778313949308 23.002521153978076 120 93 71 0.1023548494995471 1 2624 2 2828
383 -7.769928262456907 -5.0375784047634751 22.547119127233028 167 154 136 0.025194892320548321 1 726 2 750
384 -7.4371591674537729 -4.9857109479627235 22.523743467896423 87 77 67 0.38876478005267123 1 730 2 760
529 -1.3340125506754581 -2.6611796593812409 40.132911634310723 159 148 133 0.098023837975846337 1 1293 2 1440
386 -7.1866099897741771 -5.0012021912317284 22.65697564303585 96 84 71 0.15382092583266374 1 735 2 761
388 -3.3705691767064296 -5.0690285294230888 23.112602322714199 168 144 114 0.12826843717880979 1 744 2 772
533 -5.1944938612043803 -1.4297443110366708 22.564939327288513 99 70 42 0.31178603612049932 1 1306 2 1493
390 -6.1956658343122877 -4.896046532825264 22.749144288600039 71 57 45 0.62982444392481729 1 752 2 791
392 -5.849328576902951 -4.8065615953018863 22.402123126014335 141 117 88 0.06338270973673725 1 755 2 792
537 -3.4526385879592225 -1.6112314919967334 26.282839045714244 111 82 59 0.089170030803801592 1 1331 2 1496
394 -8.0061570793731125 -4.7316315691227855 22.100892611431682 160 147 131 0.6789346538957346 1 757 2 782
396 -5.684382454085358 -4.7837932684314932 22.365963527068949 151 125 97 0.4683970315308984 1 759 2 793
541 -1.0804934852913437 -2.3490339919268393 40.312647004259162 142 129 117 0.627475012794662 1 1353 2 1500
398 -7.1853990042727913 -4.5577894106874339 22.31687503160077 108 86 66 2.0431431656542185 1 773 2 843
1052 -8.8121293348494643 5.6200393961383073 23.062954193158784 180 152 124 0.033480883124645908 1 3513 2 3611
399 -6.9200974582048396 -4.6764211808439544 22.6456565251695 42 41 41 0.56603476034383016 1 774 2 818
400 -4.4438413132103252 -4.8325780383026995 23.516470011736416 175 149 112 1.3444030857849176 1 775 2 838
609 -1.1814920159936113 0.41175739596538752 43.176040386153119 92 88 86 0.46577492127355175 1 1873 2 2032
402 -5.2372500792136885 -4.8330513559044865 23.527976378030569 106 93 82 0.41744869806179347 1 784 2 830
404 -7.6427793244521878 -4.5557020757769804 22.308816150015865 199 184 164 0.092961626640054834 1 789 2 827
613 -6.1596060542799016 0.31199110381542466 22.672845797552259 130 109 89 0.8938408550357122 1 1897 2 2119
406 -7.4734667564354655 -4.4342754172510848 22.259967958119173 174 158 137 1.4801292689167536 1 793 2 862
408 -8.5922669270277279 -4.4032682780656307 22.12684709220353 222 202 180 0.58896327913990421 1 798 2 852
617 -2.5545859164404732 0.56199024183048429 39.489906628834675 108 92 79 0.60738827389077299 1 1907 2 2079
410 -5.0614239750961332 -4.4620571022119622 22.029794373270065 213 195 177 1.7205314494115462 1 801 2 828
412 -7.7259577426823896 -4.4253551747063096 22.452747017688086 194 180 156 0.026740505301371092 1 813 2 861
621 -7.823240503081438 0.44225157285884509 22.68774069622085 135 106 83 0.80531392095025867 1 1950 2 2170
414 -4.8371169353621974 -4.2900172812938839 21.721352417816739 165 143 115 0.3318637592984417 1 815 2 864
416 -2.398437097462589 -4.899420026360648 24.948022440567748 38 28 19 0.67764759527261531 1 817 2 875
561 -9.3357396199463576 -0.80935446675196943 23.13145947196471 122 101 83 0.65924905492842789 1 1488 2 1718
1078 7.2378750598334252 7.420439260432663 29.450881451976624 212 199 185 0.011994211497155609 1 3579 2 3509
417 -7.9210939370628513 -4.3733619469779033 22.438201414982892 156 137 115 0.44990064722806222 1 824 2 873
720 -8.3495200895247557 2.1804343719493278 22.877690693237938 161 135 110 0.4252205816457526 1 2504 2 2735
418 -3.2432598377882638 -4.6424771485921923 23.912196000113173 129 94 62 0.14357456880596992 1 829 2 882
1239 7.7292596925960666 8.6105178213799647 27.670292994366886 62 62 66 0.15208785885834375 1 3974 2 3839
420 -4.1990394945767822 -4.3314109128322977 22.660057327199436 170 141 103 0.093089098793043695 1 836 2 888
565 -5.2921910545946478 -0.74683534848039157 22.435199524461513 105 78 57 0.17512803642816804 1 1517 2 1706
421 -2.9190740610720685 -4.8762586753169561 25.294430287627268 110 77 46 0.80279552277044774 1 837 2 883
724 3.0364846400446766 4.0845963167360573 41.681636766648339 115 87 61 1.579566815142744 1 2508 2 2674
1233 -5.5822426232632463 7.3755208583181 23.537763774124144 126 97 72 1.5335598991735335 1 3963 2 3975
422 -5.6426231852185635 -4.1676891596655574 22.074820685667738 209 198 182 0.6314367851773941 1 840 2 904
1076 -9.2731250630964404 5.8041583597403044 23.005289198405876 175 149 119 0.10769876680869135 1 3577 2 3675
423 -8.2581840371167257 -4.1812971551851401 22.273059081144872 77 68 54 0.3329636851182376 1 846 2 902
424 -8.088799538265949 -4.173286976441954 22.22743071998265 74 62 48 0.31742621961314088 1 847 2 903
569 -8.4261257988014844 -0.7006283180935533 22.937628956970212 127 95 68 0.28358872826550063 1 1539 2 1750
426 -2.0811965507401666 -4.7230920763875828 25.158698007119249 104 84 63 0.59836559206419471 1 849 2 912
1247 14.463754648759165 8.8736528387414921 28.147077017740539 212 186 157 0.23226676672027077 1 4004 2 3817
428 -7.2528007635643599 -4.1036387295467378 22.009475887541868 99 81 65 0.21453491585996054 1 853 2 911
573 -8.9783031685699815 -0.6234541189476378 23.023962044790295 107 83 64 1.0421277989362059 1 1554 2 1795
1241 -0.55279249610732062 7.6779555046924912 24.480472023530023 97 85 75 0.12239006766222041 1 3983 2 3920
430 -7.4996128258040056 -4.1062614100041781 22.195856812668467 91 69 48 0.21631237294422634 1 858 2 914
432 -6.8069252436636605 -4.1598239377524244 22.471481763104659 194 181 161 0.18126386504329847 1 860 2 917
513 -6.4395626223271512 -1.6638628799671507 22.380627188301958 119 98 77 0.79200129474310432 1 1209 2 1410
434 -4.3069930008678403 -4.136688293848418 22.399433689864626 180 147 113 0.4989276152397859 1 863 2 918
436 -8.4421464766067871 -3.9932023995758312 22.196019929969427 177 155 129 0.31423003610538908 1 874 2 931
517 -9.1576459875718452 -1.5493283966887996 22.899975898684286 113 74 44 0.3669659867395354 1 1257 2 1458
438 -3.9395744620184097 -4.1954567547372514 23.254502231561045 158 129 95 0.51239834228173353 1 876 2 933
440 -6.9630940262122669 -3.9818247819114871 22.37483756477425 121 102 86 0.062259248663506093 1 878 2 943
521 -7.4966489361075546 -1.4651663767246355 22.444506694497182 94 75 59 0.0082329919080483122 1 1282 2 1468
442 -7.9531381848437999 -3.8817031566524789 22.183424986458874 159 129 97 0.055368766605296139 1 885 2 951
444 -8.3979072559022914 -3.8223667929760756 22.118738399762762 134 105 79 0.46575374559923916 1 898 2 957
525 -6.1880764660530723 -1.4678522367513611 22.582761862381741 113 78 47 0.19555576176860207 1 1287 2 1473
446 -6.8357452868780681 -3.8938836884956469 22.40865286054974 184 171 153 2.0158872521733024 1 902 2 947
448 -6.104003005912249 -3.8158230599304201 22.232637437852031 136 119 99 0.59882235734970091 1 904 2 966
593 -7.5725471949449785 -0.10368972893190079 22.825051376756498 64 62 59 2.3750890947273051 1 1726 2 1998
450 -4.8679657287076639 -3.6859427272353433 21.834418441512906 148 126 101 0.27603793394767584 1 906 2 981
452 -3.7771564000425797 -3.9585186287681786 23.743635582656864 147 114 80 0.85700257377802225 1 910 2 993
597 -7.2985128021907135 -0.10318839820837453 22.75791193694511 74 67 63 0.43194793672305659 1 1755 2 1972
454 -8.5635441331931066 -3.686104029282939 22.343096825492193 87 73 59 0.10551758095084879 1 920 2 990
456 -4.4861142081914869 -3.595629604644242 21.757450862448721 144 109 75 0.29303960867126722 1 922 2 992
601 -7.9280210824052739 0.0042327193888053874 22.724652365224589 121 102 87 0.32932067520440128 1 1811 2 2012
458 -7.3977405885349068 -3.5933759573016659 22.154448119562399 130 114 96 0.78478114740063631 1 928 2 1013
460 -6.0932670475603112 -3.5750254398279351 22.028949764383498 100 80 59 0.73556768528661109 1 930 2 1014
605 -5.8557889277703197 0.052853352250445476 22.543833268074955 82 75 71 0.854417706241831 1 1831 2 2013
462 -3.4973910921816413 -3.9522223935275762 24.332086750626765 90 63 40 0.15465645804034694 1 936 2 1007
464 -8.381818035328898 -3.3663825825866192 22.223103887100851 58 50 41 0.10516355629760699 1 963 2 1050
673 -6.505469476635418 1.3747276809032511 22.874322094023601 69 60 52 0.5102836186504941 1 2228 2 2464
466 -8.0527013023937659 -3.3626514177058002 22.195615363863261 49 41 32 0.098562083887344915 1 965 2 1051
468 -7.7566279293647264 -3.3822090691195057 22.4298491981904 39 37 32 0.59821708121127259 1 967 2 1055
677 -5.9635163447386921 1.4047109168085601 22.748070036303712 142 124 106 0.34722694568635593 1 2250 2 2466
470 -7.587172851598087 -3.3437383868309931 22.384920762802491 70 70 65 0.56627890186238239 1 975 2 1067
472 -6.9657450981462539 -3.2925120820562115 22.038704531224433 131 122 106 0.53399498594618366 1 977 2 1070
681 -5.4274361641546047 1.4354869414220344 22.627177694506962 114 87 67 0.20274664200025938 1 2267 2 2485
474 -6.5994316110456692 -3.2701900094695402 21.887534300323384 156 145 125 0.5187150161486076 1 979 2 1072
476 -6.1981781827406373 -3.3131940501691326 22.173281537178841 198 177 151 0.53924733135208225 1 981 2 1073
685 -4.3877556501412585 1.7662525247094767 25.897319085670507 134 105 79 0.1102176851312025 1 2292 2 2501
478 -7.2974794851928158 -3.289302521760967 22.121785349806295 124 118 109 0.030581446348478966 1 992 2 1068
480 -4.964147709707933 -3.2391994181265322 21.777243904624086 193 182 165 0.01185255347945501 1 994 2 1076
625 -9.1996194574866141 0.51557924940153332 22.943051920858512 160 136 111 0.1212758196207796 1 1977 2 2192
482 -4.5826742353043839 -3.2278906753978087 21.701017991411142 154 138 115 0.020175737899778636 1 996 2 1077
484 -5.1241092141228819 -3.2288226692836539 21.810484366618045 197 175 149 0.51853282465019035 1 1000 2 1075
629 -5.8604670582931861 0.57345377210627091 22.669492585044086 106 96 84 0.21350085083424858 1 2002 2 2195
486 -2.5018689019680038 -3.7004507564382689 25.00706804730633 121 86 55 0.25569349037988809 1 1002 2 1079
488 -4.237900833043982 -3.2329323592378385 22.494225417602586 114 84 61 0.51563412993477342 1 1012 2 1097
633 -3.4994331774606704 0.83593799302790495 29.949302141316604 127 98 74 0.75020579083699146 1 2015 2 2197
490 -5.2173969191768812 -2.9923917439215271 21.572034198196349 99 78 56 0.17879773439008445 1 1019 2 1118
492 -3.6069488607544256 -3.3820483832422701 24.91626250069892 64 43 30 0.096945305163146117 1 1027 2 1131
637 -4.8237114933133931 0.6423285680173938 23.516583411311995 117 87 60 0.79744252473326971 1 2027 2 2196
494 -2.6554050815476486 -3.2549603541472343 24.92336839996204 130 121 115 1.5714895873443679 1 1037 2 1153
496 -7.8240361443706385 -2.8730986267854353 22.436200116684223 109 88 66 0.83726065685746076 1 1050 2 1152
577 -8.1207157068382489 -0.55077351828247623 22.916467675028834 132 101 71 0.14556963861811129 1 1589 2 1810
498 -4.5024256393005686 -2.5013233221150402 22.454524506669475 117 87 60 0.4512379604821356 1 1079 2 1210
500 -6.1640072052093213 -2.294461270771444 22.137623201525827 127 102 76 0.78368792479163085 1 1097 2 1262
581 -8.5242448430246274 -0.50253260109899367 22.70410595106928 91 73 57 1.5209706754477443 1 1628 2 1809
502 -3.901590298353919 -2.4047352630121397 24.848106030219924 125 86 52 1.6363988951186652 1 1125 2 1289
504 -8.9830415269539401 -2.0660764410690464 22.671444030113832 157 138 116 0.63695314879971332 1 1143 2 1308
585 -1.1675718316781205 -0.88487551009714072 41.945849542000801 88 67 47 0.34686134854671202 1 1634 2 1773
506 -4.6256546111677128 -1.8460767011136259 22.947038450797834 144 114 85 0.67340935897842957 1 1182 2 1364
508 -5.3231296496331169 -1.751700735389438 22.329517027210198 115 90 67 0.99099777847317383 1 1187 2 1386
589 -7.0258283469602638 -0.27941926322469873 22.692818565401478 117 91 69 0.13240989530292954 1 1698 2 1904
510 -6.903142539047022 -1.717636668207817 22.429279908321988 93 75 59 0.27849344161892253 1 1196 2 1397
512 -3.2425443645483747 -1.9626292311513305 25.420805849511087 101 75 53 0.031637605339861055 1 1198 2 1375
514 -4.0345995940352122 -1.9691882288490818 25.211313263949119 110 75 45 1.5628807408341769 1 1210 2 1355
1458 -0.64125732180659911 9.7627380606391494 23.653280208117319 122 113 104 0.038429732346462284 1 4539 2 4378
515 -4.8322835821712511 -1.6408968814838476 22.361407218694367 121 87 55 0.51805248587782415 1 1227 2 1403
516 -1.7782405287741447 -2.7826228712171224 39.750430743696342 181 162 140 0.38117105485357394 1 1248 2 1414
518 -8.0859451408271479 -1.5138804663392433 22.665092670757996 136 103 70 0.032687051957030921 1 1271 2 1460
519 -7.9139311331983926 -1.5101710810497977 22.618988341843174 119 89 62 0.015188796920116954 1 1272 2 1461
520 -7.7508880884998179 -1.5108402216974552 22.640594449274733 126 92 56 0.010420703617496946 1 1273 2 1462
522 -7.3556832385634703 -1.4785405007842989 22.668198657256177 97 73 55 0.042423931679098734 1 1283 2 1469
1466 9.504819640649151 9.7652892288190429 23.6751224538123 216 198 179 0.24752205457673959 1 4556 2 4276
523 -7.185350002985091 -1.4750604582898392 22.624962530512512 98 68 43 0.060588575257464125 1 1284 2 1470
524 -6.6448609069230775 -1.4642450298159091 22.491621269066297 129 96 64 0.11907280293579059 1 1285 2 1472
526 -6.0207533112908909 -1.4646674015670504 22.544258056318203 105 75 48 0.21414855602673072 1 1288 2 1474
527 -4.9959491770648956 -1.4543660359736066 22.456189638146785 106 76 46 0.34748957364805444 1 1291 2 1475
528 -4.8315526495225321 -1.4514823503457877 22.422523736469799 108 77 48 0.36651521537547871 1 1292 2 1476
530 -8.3727212465539562 -1.4593516786980592 22.806746966113707 123 88 60 0.11057167211094104 1 1303 2 1490
1410 -5.3732549074312876 9.1676145009315189 23.424372704912006 106 88 76 1.1246738464618606 1 4411 2 4334
531 -7.0159182779910694 -1.4559662590905909 22.583042309711878 71 48 30 0.43373157977623716 1 1304 2 1471
532 -5.4218797311096552 -1.417305080472629 22.343757343180584 111 79 45 0.25109549716892104 1 1305 2 1491
534 -4.4287137341750151 -1.4545282809678208 22.757838739882619 124 78 43 0.046100770328961801 1 1307 2 1478
535 -4.192906202332054 -1.6214497433334927 24.884089912429197 64 40 22 0.76816853488628722 1 1308 2 1453
536 -3.9390255925538753 -1.6364061229306781 26.663559388673416 108 78 56 0.11744872457414263 1 1329 2 1495
538 -2.1843137547714253 -2.3825513661950368 39.797570571114406 81 59 43 0.27229968393616005 1 1339 2 1499
1418 2.8253795249681519 9.4751383660415716 24.347934364626042 45 41 38 0.86673509455887277 1 4428 2 4234
539 -6.0294359986880233 -1.2643459961966654 22.741840976988399 117 90 68 1.5867592066944129 1 1346 2 1564
540 -1.5490164957865689 -2.2957900474918254 40.376346482665205 86 69 55 0.32413690163984682 1 1352 2 1522
542 -8.8857959652534557 -1.2476781451945722 23.075249528806079 92 69 52 0.64365353663760994 1 1359 2 1577
543 -7.0749634407347166 -1.2785339200352517 22.861951441186179 71 56 43 1.558287511797976 1 1373 2 1533
544 -6.896991726957709 -1.1722993134880466 22.745034326688252 70 57 45 0.37601902766976247 1 1380 2 1585
546 -6.3983179886247283 -1.2204905299313402 22.763046489656833 60 47 35 1.0029355107733133 1 1382 2 1553
1362 -1.5530657060865789 8.9169252386384272 24.019793448880662 105 80 61 0.37506927522988176 1 4296 2 4208
547 -5.2262538603489608 -1.164346185498766 22.43014675969965 82 59 41 0.11836048176931144 1 1383 2 1579
548 -4.7509087226405224 -1.2141339223233341 23.845140224535708 132 100 72 0.85772929678157794 1 1384 2 1588
1216 -4.9960249089190851 7.4214984438344249 24.329774794413101 86 69 54 0.14749100154548975 1 3924 2 3918
550 -8.4417807978442596 -1.1685046995919202 22.82038594056058 101 75 54 0.38088478939112391 1 1394 2 1584
551 -5.5586429991357154 -1.1082864883164334 22.567913488290685 94 71 54 0.03787974435518611 1 1400 2 1590
552 -5.0956221098626191 -1.0266445734837562 22.604355379877706 119 85 57 0.43250940241960723 1 1434 2 1607
554 -2.0795778292114693 -1.713533580629917 40.434056990950253 90 67 48 0.16742526640340541 1 1448 2 1609
1370 -3.2067893524206461 9.1429252380320669 24.455496554725141 43 43 42 0.088342434966915712 1 4315 2 4223
555 -1.7488342880066117 -1.6985434687641698 40.846568701899415 95 74 54 0.70790483534324233 1 1449 2 1622
556 -7.1510416610655705 -0.95863393713878997 22.607844956669172 81 63 48 1.3549446318082754 1 1458 2 1631
1224 -6.036888443845795 7.0526574620659952 22.936651095629763 177 158 136 0.40621810649493439 1 3947 2 3947
558 -1.4524257855806351 -1.6957045954766963 40.804672368967047 45 40 35 0.26463561992444784 1 1461 2 1610
559 -7.4176756560135182 -0.85731723108433622 22.937096104861098 112 82 58 0.052197457642391275 1 1477 2 1683
560 -5.9565163254336015 -0.85266046524138217 22.583762525952661 115 79 49 0.21322328805035035 1 1478 2 1673
562 -8.9920803654904002 -0.85689030533239385 23.100566962521413 114 86 64 0.73257538288222701 1 1489 2 1682
1442 -5.0963309111892885 9.2697241482662562 22.9406934102748 46 43 39 1.0459427177828284 1 4500 2 4385
563 -5.6916297308026298 -0.76992217666345175 22.589177113345482 110 79 54 0.28015739556593977 1 1500 2 1705
564 -5.4906962454832424 -0.76593800053701677 22.479264395550938 113 84 61 0.69625700800855062 1 1516 2 1695
1232 15.883187421965808 8.7404444715010623 28.602886418997336 192 160 116 0.71385823926348801 1 3959 2 3756
566 -5.0956086868550212 -0.76567746906263179 22.532190304797329 85 60 41 1.6119450948586298 1 1526 2 1684
567 -1.1811534857902817 -1.2381127108695642 40.491052980956958 117 86 62 1.1738909908693125 1 1528 2 1710
568 -0.68877401017147077 -1.2913047740652415 42.396148130225697 143 118 94 1.2829329462041485 1 1529 2 1711
570 -6.3887166427864317 -0.67819339914771759 22.612590557229442 72 59 46 0.075068914533535952 1 1540 2 1751
1450 -7.7775276109427605 9.4042348757292586 22.930476229922935 178 149 125 0.16390802636154109 1 4522 2 4450
571 -6.0260982117629434 -0.66044097095698617 22.661480369844089 112 88 64 0.64331442452761833 1 1542 2 1762
572 -5.8588215839892728 -0.69153887840246442 22.625898097307136 82 60 42 0.30455493024369196 1 1543 2 1734
1240 -1.4685815751378177 7.5702079658655537 24.097532992803607 89 84 79 0.18845809530238855 1 3982 2 3938
574 -7.2104923703225952 -0.65821830054625396 22.880560365706085 67 53 41 0.075017786897787958 1 1556 2 1760
575 -6.6925625224965275 -0.64976225703221635 22.684869258978392 100 73 51 0.00027205867328110458 1 1558 2 1761
576 -1.7882362595534593 -1.1510245914656672 40.359315083683207 92 67 46 0.41206729559199784 1 1571 2 1709
578 -4.105582761379968 -0.68814515621232786 26.37730665179383 109 80 54 1.0798956250720846 1 1591 2 1752
1522 7.739129244225893 10.204191535313276 23.075247352021954 199 178 156 0.018327737565144931 1 4696 2 4430
579 -5.8225933377974979 -0.51121225300492357 22.545804801469842 87 77 68 0.063167414527785098 1 1608 2 1811
580 -4.5552644473593791 -0.53006511287997005 23.117505617883342 110 75 48 0.079550053754686767 1 1609 2 1796
582 -7.2785482898348342 -0.44118606019132806 22.561944146818409 74 74 72 0.1855019675036951 1 1629 2 1841
583 -7.0693698295386911 -0.454257432736067 22.445198199261377 120 105 91 0.2740672143430698 1 1630 2 1830
584 -2.5227012936633439 -0.85549985383675131 40.010719041668125 98 84 75 0.56525554821201052 1 1633 2 1772
586 -7.720787442460761 -0.3690730312271977 22.940325542601858 106 73 48 0.41714086636258985 1 1668 2 1866
1530 1.6455091291746273 10.390576384051228 22.661060025911183 232 211 194 0.97448538503543458 1 4740 2 4554
587 -5.3921149508055883 -0.29742079992891124 22.513277251876801 141 106 71 0.50546743388594562 1 1686 2 1887
588 -3.5221771272290945 -0.45943372368399649 29.505522659138418 78 61 49 0.82606761011918817 1 1687 2 1832
590 -5.0630786375403476 -0.24936380566505342 22.856952449297737 114 77 50 0.099616167123564553 1 1711 2 1905
591 -8.7888669528299346 -0.16404927714332548 22.897972532649536 70 67 64 0.63470549564610512 1 1724 2 1963
1315 -2.2046753552594263 8.505548156530363 24.451598212579732 82 65 52 0.2606337410773617 1 4172 2 4099
594 -4.3156629928564758 -0.20984968887521618 25.74674098799635 102 75 53 0.095161888538660214 1 1727 2 1917
1474 -2.0373859988473355 9.6498460957927215 23.008096614488167 153 137 119 0.41499797620111489 1 4580 2 4422
595 -3.6079894114427598 -0.13422906953728647 27.786374207233489 95 71 53 1.4004393066893881 1 1740 2 1948
598 -6.6968825496860251 -0.082335600045172708 22.741936903599527 98 67 46 0.064694338560578324 1 1767 2 1973
599 -4.7130172699264561 -0.11803566196500193 24.126489220041194 125 95 70 0.72869058250233842 1 1768 2 1944
1323 13.78616870425747 9.1734273437022509 26.532325178712068 133 108 78 0.99337053524968677 1 4186 2 3961
602 -5.394487079087301 0.025821696034851488 22.6437931521561 113 83 58 0.30189202643264668 1 1812 2 2015
1482 4.430842536180605 10.061496315535265 24.037478655021214 165 155 147 1.2778889081305924 1 4595 2 4346
603 -5.2353798545007066 0.064038754585484428 23.315988913719586 86 62 44 0.42248286747042219 1 1819 2 2023
606 -6.7016462226878586 0.12980683598391238 22.806055769181139 86 71 60 0.40874627716541889 1 1835 2 2047
607 -4.3134260680951337 0.14365692338937433 25.827727438403155 127 96 66 0.43218214289301532 1 1837 2 2031
608 -8.9644366490631029 0.22508284293138048 22.942886772207434 109 86 64 0.22890469166621885 1 1871 2 2095
610 -4.7157326094999039 0.26060141462475411 23.881874738429229 98 76 58 0.018640399324316492 1 1888 2 2076
1426 -2.4866674545156937 9.6183402106180171 24.166030441530779 54 42 33 0.25511769986090099 1 4463 2 4328
611 -1.7913219988436746 0.45486818007456115 39.585190932048015 69 70 72 0.74618483909388067 1 1889 2 2051
612 -6.7066804157993483 0.29377704627015855 22.872470636842042 87 70 58 0.29155768377363811 1 1896 2 2105
614 -5.9247728210960755 0.29664265577234644 22.61991098891539 115 84 58 0.46162140945217939 1 1898 2 2106
615 -5.758201439366923 0.2314348492381969 22.587112428558619 137 123 107 1.4505081102006203 1 1899 2 2070
616 0.035730923875819144 0.53431748001380319 42.19782590205601 112 103 95 0.57814834819452043 1 1901 2 2053
618 -7.5649204172254008 0.38075478673214308 22.753294928028534 150 124 98 0.050165588759353272 1 1937 2 2135
1434 -5.4048247482091174 9.391190646455895 23.29086390661023 80 68 57 0.30432438326912842 1 4483 2 4390
619 -6.4976599899418215 0.37450271613119468 22.75370608568911 95 72 55 0.23495982241730609 1 1938 2 2127
620 -8.2732744649709424 0.42414221558202414 22.81076713454453 41 29 18 0.21461300662016256 1 1949 2 2159
622 -6.3284217882440554 0.40772450495620066 22.712843130191143 103 77 53 0.2195767335760847 1 1951 2 2136
623 -6.6809841524931182 0.43227550450490831 22.530136326424184 78 73 68 0.37933535554996006 1 1963 2 2144
624 -3.6900390192874091 0.52646079391652034 27.787569546425861 86 61 45 0.38359478907962741 1 1964 2 2120
626 -0.57765588744819985 0.89915332950382254 42.273447526087914 75 67 60 0.56324016097459317 1 1979 2 2108
1506 -4.0821318458632234 10.078609132270302 23.157250675472987 122 97 68 0.6045580840930882 1 4660 2 4514
627 -5.3341018408341991 0.54000889362130355 23.041146109570853 128 96 70 0.4632147711267956 1 1992 2 2171
628 -6.3242453039941964 0.56792542741300378 22.641986599391025 103 88 74 0.35562016109449301 1 2001 2 2194
630 -5.5946024427328682 0.59296058490546788 22.676773758111583 119 90 65 0.35430426529430448 1 2003 2 2203
631 -4.4559060737089196 0.60766399414688543 24.542694066655713 100 73 54 0.51182337243669584 1 2004 2 2172
632 -7.1809856759668058 0.58345914132543186 22.920412062552494 170 147 123 1.0695801997551233 1 2013 2 2193
634 -2.6898170065039078 1.0969135809825377 40.169301295307285 130 104 79 0.50022575246390411 1 2016 2 2173
1514 -0.34698590393200157 10.184606289189613 23.074484304024828 196 167 142 0.13500853032383692 1 4678 2 4498
635 -6.7349703673870396 0.66716023884182063 22.80493306342424 119 90 64 0.47512574554807174 1 2025 2 2237
636 -6.0249756690313374 0.66867881561131071 22.635938592631526 112 88 68 0.65875815295019668 1 2026 2 2238
638 -0.94644874952659241 1.1904823854075615 39.879549244718653 81 68 57 0.75690008599958669 1 2038 2 2174
639 -8.0297655002325445 0.81288492109443911 22.739464379347151 142 114 88 0.079233772658379456 1 2060 2 2292
641 -6.1699589062113427 0.83883438781894215 22.871599651506614 128 97 70 0.53550972465010505 1 2062 2 2295
1299 -2.5748413797892704 8.4197437050572326 24.683399864183887 60 56 54 0.37978000112686994 1 4136 2 4056
642 -6.3954880286887805 0.84591077355935362 22.72118884641176 95 73 54 0.075938540298907786 1 2072 2 2294
643 -4.2737921558813765 0.96529587808725015 25.892867594179076 111 86 64 0.046286469861338012 1 2073 2 2268
645 -1.6618420400346712 1.5270645775994187 39.743150719830197 83 67 54 0.055311047110047244 1 2084 2 2254
646 -0.98312936934463369 1.5182479627499581 40.097201533986109 79 67 54 0.3152662855027546 1 2085 2 2241
647 0.17892625177431212 1.6094712851573021 41.363362069117734 92 80 68 0.40404332646846669 1 2086 2 2255
649 -6.802977662931232 1.0083788270466569 22.817890601762457 119 92 67 0.31697828698647168 1 2119 2 2349
1307 -4.3346547294619189 8.6624109834955156 25.09635422187511 31 32 30 0.33052916163612767 1 4153 2 4104
650 -4.7500744800852202 1.0702734493405295 23.949811640888711 110 77 53 0.041672949653796539 1 2120 2 2340
651 -8.9271094457102009 1.0547970991054683 22.921811059180296 118 91 69 0.061715614926323652 1 2132 2 2375
653 -1.6620506008926661 1.8122968002103907 39.058350213013895 93 76 62 0.46344991845983941 1 2135 2 2313
654 -3.2752162139684824 1.3674362676504739 29.281510510079702 124 99 80 0.45709046581310864 1 2141 2 2325
655 -2.2453115589962187 1.857242962278403 38.938063405447501 137 114 95 0.34377115517287982 1 2142 2 2328
657 -0.79145466171704637 1.8817653968518964 39.139091368381557 116 92 71 0.60700105773137358 1 2144 2 2329
1379 -2.7573995364605639 9.1790130570295343 24.291095473649481 47 47 46 0.85573722599274704 1 4337 2 4243
658 -8.7012116069336471 1.1204431628808016 23.185857833685041 164 140 115 0.46982744483056682 1 2153 2 2385
659 -7.4796029080933382 1.1350851423475514 22.587562447337667 138 113 89 0.78271791499022791 1 2154 2 2393
661 -0.11453830916413825 1.9629246836590821 39.493005900339028 134 108 87 0.27383125233158034 1 2166 2 2330
662 0.41544196797518035 2.0610566386462721 41.313272658322887 114 93 75 0.13105540536754884 1 2167 2 2331
663 0.92505324629971819 2.1101619770658697 42.794651905064654 132 112 91 0.50734648768147061 1 2168 2 2314
665 -7.058038226572819 1.1435928126696344 22.680128542823866 144 121 101 1.0506827536872874 1 2177 2 2386
1387 -0.60568532390376073 9.2409100292588064 24.217360956080981 53 47 42 1.5254134246565627 1 4354 2 4244
666 -6.4330861639246741 1.2073729767191714 22.790947632353397 88 70 56 0.64631207827809489 1 2178 2 2407
667 -5.1694956940197017 1.2379315735291347 23.650544037059312 123 86 57 0.24673066815221784 1 2179 2 2389
669 -4.3920414253518452 1.382227268684598 25.728109865291774 121 94 70 1.722173259478748 1 2207 2 2376
670 -3.9621699725621364 1.5637582961858294 27.078146094917788 55 40 28 0.015829931984400105 1 2215 2 2411
671 -3.7367155671656365 1.601970000193103 27.658784375886338 101 73 52 0.14050297001855794 1 2216 2 2413
1331 3.0473734739767067 8.7804617610031599 24.691316603187662 71 75 81 1.0191604148733933 1 4206 2 4091
674 -6.8421587041530918 1.387473540939919 22.889510293803767 105 77 51 0.11882392601863512 1 2239 2 2463
1490 -6.209558171690194 9.7897877536180378 23.064461960217663 142 125 109 0.030422454022139368 1 4607 2 4490
675 -6.1321608132071734 1.3893497093889771 22.786408189983426 113 102 94 0.11247640930605468 1 2240 2 2465
678 -5.7978074759692655 1.4088174238727098 22.778683644928815 122 106 92 0.28223230160438539 1 2251 2 2467
679 -7.5892970376180946 1.4616082298918065 22.677921693642563 186 164 139 0.47986891376277507 1 2265 2 2509
1339 -4.3587979129848531 8.7361041600387139 24.192822782323116 30 31 28 0.30861468404985071 1 4237 2 4185
682 -7.179055616449479 1.4989324641996657 22.904329120453831 101 67 40 0.16836215886846248 1 2272 2 2510
1498 10.727357088856438 10.008399497923209 23.637598572302434 198 180 161 0.27062653138056947 1 4628 2 4319
683 -0.74714491210641598 2.5642520191203633 39.552373644806408 100 77 56 0.003248486706747448 1 2273 2 2428
686 -8.8786568452942038 1.6022774968320588 22.836602766543702 165 141 118 0.3964568594144634 1 2303 2 2560
687 -2.0868725513305839 2.7499228108978766 39.533593448764357 125 101 83 0.20784942286389541 1 2304 2 2488
689 -7.7347764904693497 1.6448472249633816 22.781184985108144 166 142 119 0.20853639807253405 1 2324 2 2561
1283 -6.1618716016942319 7.6058620560679131 22.763165493296345 94 76 60 0.12518338864259509 1 4100 2 4072
690 -8.1815887323420373 1.709238468326693 22.638645169597261 148 120 97 1.0077541383804833 1 2334 2 2603
691 -5.9966852942378788 1.7468925038493088 22.748316039540246 146 127 108 0.88178234191350235 1 2344 2 2593
693 -3.7226672795732694 2.12534375488368 27.968609760663156 89 65 48 0.53669304233753201 1 2360 2 2538
694 -7.150854414375126 1.7978896110312541 22.96157403536089 93 66 44 0.054643578250688052 1 2367 2 2604
695 -6.5685039735440727 1.7934031360778744 22.816483507941744 128 88 53 0.13833368245764072 1 2368 2 2605
697 19.103147617275958 2.6288433319743034 33.316854406308799 178 154 121 1.0672622523042363 1 2375 2 2474
1291 -8.7504816967629502 7.8341001881881107 23.123371411360619 160 138 114 0.16061554763867708 1 4123 2 4129
698 -2.2491745674286308 3.1250888346177055 38.889188644890922 121 101 83 0.44901388183337698 1 2389 2 2550
699 -1.9672161710904008 3.1524985504985925 38.835514163527101 100 79 62 0.099856151271880619 1 2390 2 2565
701 -1.2086309333647456 3.1954441991458973 39.595829971423377 89 74 61 0.2098634839107017 1 2392 2 2552
702 -0.64406426185167709 3.232326394498751 39.964642106557186 97 78 62 0.084812570799447151 1 2393 2 2553
703 -0.092684077495081854 3.1760807822774995 39.207398539807208 126 108 90 0.00037417533042698642 1 2395 2 2554
705 -4.4692619357993069 2.2076014090567031 25.627935860461239 125 101 79 1.3049174283979716 1 2413 2 2645
1363 0.705903894083176 9.0967437536284983 24.679630416954581 119 119 121 1.2814301977933729 1 4297 2 4156
706 -5.4340830161021758 1.9354856025749598 22.969992916039814 134 94 61 0.97604340896661146 1 2421 2 2625
707 0.40174979694594526 3.4576639070309292 40.757780473133714 46 46 43 0.3821738066123449 1 2422 2 2574
709 15.894055834589539 2.611585532229233 30.460919329996582 156 133 112 0.34775738754173435 1 2439 2 2515
710 18.201164925463658 2.8404754811650501 32.983780979894433 188 169 146 0.027497809732338663 1 2440 2 2516
1061 11.007650109818869 7.0523148090993226 28.87151913061782 186 165 145 0.18989858095608625 1 3530 2 3447
711 -6.6024834854733063 2.0047316107492787 22.823518433565109 70 55 43 0.54366266530574769 1 2446 2 2658
713 -5.9294826748228493 2.0213748048666913 22.732646334030122 147 125 101 0.80475007444919533 1 2461 2 2659
1371 -2.293822125114656 9.0552207410869858 24.300141284444873 77 73 69 0.69054466126869851 1 4316 2 4213
714 -4.5202730126609305 2.2869428769222733 24.939098625452928 139 110 87 0.10726764168163676 1 2473 2 2670
715 -5.6217985923793377 2.0637585603326003 22.459401806077945 144 110 76 0.78654631080213777 1 2482 2 2679
717 -7.2194557657336942 2.1580784550054677 22.975623448871655 71 58 50 0.38241404508313392 1 2491 2 2708
718 -7.0469315151883016 2.1727971057812536 22.930414462212379 65 63 63 0.16426498394775926 1 2492 2 2727
1069 3.2984353043103662 7.3447612027657403 29.480354331360743 73 79 88 0.76101449390230491 1 3548 2 3519
719 16.832921449744742 2.8367220948051237 30.13927970712588 228 212 195 0.48917139441462115 1 2500 2 2577
721 -6.6414075851532335 2.1746684142241071 22.899384116952668 70 61 54 0.6742924409638329 1 2505 2 2709
1443 -2.4001350147990839 9.719640082202158 23.990218336023265 70 64 59 0.32556800821509196 1 4501 2 4360
722 -3.2922694811421955 2.8081769808756252 29.73575245704837 104 81 62 0.94552026750844942 1 2506 2 2661
723 2.1770291528276822 3.8497184976225074 40.300805255834234 61 48 37 0.10263311062428179 1 2507 2 2647
725 15.66841501136776 2.9423239924706661 30.903666374770918 178 159 136 0.14204030391665085 1 2516 2 2590
726 16.275123248628695 2.9340666903811501 30.759215234169528 198 177 151 0.30520600571010892 1 2518 2 2591
1077 6.6113899186992562 7.3349901904488499 29.064058326632502 153 147 139 0.2559258290403611 1 3578 2 3514
727 15.556092825462205 2.9985563098930275 31.269302665891274 164 146 128 0.41004627724758891 1 2532 2 2589
729 -5.7277057552968609 2.27943201178716 22.681609106307224 194 171 145 0.070406219335382436 1 2556 2 2750
1451 -6.9151626604279191 9.429246103184532 23.034822685039387 148 115 88 0.39882559261268569 1 4523 2 4433
730 -5.4706167656948894 2.3125149601760264 23.113120728249111 114 83 58 0.21997329921760853 1 2557 2 2741
731 -4.9616317111932453 2.3715041667945718 23.4378097611987 106 84 69 0.53892573956709977 1 2558 2 2751
733 0.042699250660348874 4.0694251858972601 39.820420829852111 106 88 74 1.3939923128185883 1 2560 2 2714
734 -8.1301581928065545 2.3493027927783445 22.747678568351279 142 124 107 0.96526244060937683 1 2566 2 2797
1085 4.7886621113217238 7.4315926762123787 29.306240593571641 63 66 71 0.080589007282163949 1 3593 2 3535
735 -6.7096587593938057 2.3385643077158118 22.914618521103197 144 130 117 0.83234603011041886 1 2576 2 2760
737 -6.0270093804108633 2.3398442333158811 22.681729978509519 133 110 86 0.10689207567982534 1 2578 2 2769
1395 5.2855519622324127 9.5802039435968585 25.083705241068198 146 139 133 0.44261115443592763 1 4374 2 4192
738 1.2394699274527565 4.257894936353269 40.365590204861988 42 43 45 1.6434925618396212 1 2579 2 2737
739 1.9997361846719546 4.1418108106599378 40.303905706098291 52 50 48 0.18030088337580427 1 2580 2 2693
741 -6.2180682056177954 2.335496229938633 22.526200549701727 138 124 109 0.73758269874072913 1 2590 2 2768
742 -0.94870988627996333 4.0588158917166499 39.297205714389712 124 101 81 0.84978134260827298 1 2591 2 2706
743 -7.6990679244501843 2.4049536108282834 22.764300881125511 159 138 119 0.3838294191038073 1 2599 2 2798
745 -5.7390623874780999 2.4643628786710567 23.029839779966348 97 67 46 0.46929211452826403 1 2608 2 2787
1403 6.0028640280527101 9.5829166107269916 24.821083682864362 137 130 123 0.46562742742018332 1 4397 2 4210
746 -5.2675307590523568 2.4836780845644726 23.13812328206981 95 80 71 0.24684651695399112 1 2609 2 2788
747 3.05528809368246 4.5434265556259064 41.156961591786519 172 142 112 1.0145094128301959 1 2614 2 2755
749 0.04109590613979943 4.4676261771867667 40.276013385742665 114 93 78 0.34331444037216985 1 2625 2 2764
750 0.97140679724106249 4.4367669902780387 40.161652728455735 46 45 43 0.047808581973390669 1 2626 2 2754
751 15.7416934237311 3.2463408348557321 29.689731426435884 147 124 105 0.10569385716471788 1 2634 2 2677
753 -5.4617559244808769 2.5758266373969163 22.687332347635664 120 104 90 0.031137553547197432 1 2647 2 2831
1347 1.7232735381398279 9.0162033898459093 24.58795672105261 92 97 107 1.485407572828473 1 4261 2 4161
754 2.3606348617006683 4.5246256594083905 40.015663153129545 79 55 38 0.16605817815485258 1 2649 2 2765
755 14.778083661484876 3.3497439161094413 29.520023359658964 160 141 121 0.68357741901163283 1 2652 2 2720
757 -7.1021152108923449 2.6468409375316235 22.803627807457875 114 88 68 0.69286129699023125 1 2660 2 2859
758 -4.8546218882848242 2.7892850933697355 24.097711035337944 128 100 76 0.48409695151078524 1 2661 2 2839
759 -7.7491517146215569 2.7307815481714313 22.904545938066757 100 78 59 0.84997358541446455 1 2681 2 2880
