# 3D point list with one line of data per point:
#   POINT3D_ID, X, Y, Z, R, G, B, ERROR, TRACK[] as (IMAGE_ID, POINT2D_IDX)
# Number of points: 427, mean track length: 3.0360178065560501
117 7.4051942445701524 -4.7485363057381234 18.108434824977749 102 91 79 0.54683755205279005 2 173 4 92 1 140
118 -3.8870123842405473 -4.3877463667937953 16.50310867888977 154 146 139 1.6691913549549962 2 176 4 332 1 184 2 175
1505 -0.96051896095886358 6.061304233587804 16.668282265438787 11 11 9 0.52442318102535757 2 4206 4 3872 1 4217
119 -3.5124425044281731 -4.3434239572695521 16.388031846529387 122 116 108 0.78311092588048037 2 177 4 336 1 179
455 11.295065990860278 -2.1508609731575641 16.712192702093965 98 96 91 0.67199651747360178 2 858 4 608 3 661
1108 -2.5808243131028425 4.4451828618160327 20.24923292072943 44 37 32 0.53753565495150268 2 3341 4 3170 1 3210
1829 17.433335045153701 -0.088160154223568307 67.938903415537425 150 129 104 1.8408918915187527 2 1775 3 1128
120 -2.8170881507903949 -4.4508381465516296 16.702385811631729 130 108 90 1.0242398096293606 2 178 4 307 1 171 3 53
1000 12.292381062242075 2.8149213208945341 15.986248476810452 143 120 98 0.54132896360780713 2 3038 4 3383
121 -0.087966230994418526 -4.7031090680471106 17.873473954797884 148 160 181 0.78578888749751663 2 180 4 258 1 172 3 94
449 12.018332849792419 -2.1849002877180688 16.532357971502222 50 51 50 0.62366946697408854 4 560 3 670
1110 -2.4265675568695122 3.9785402685510904 17.75067227917263 91 71 57 1.6024994981455987 2 3350 4 3105 1 3227
122 0.46147314286255825 -4.7123400671390172 17.88693096316949 96 82 70 0.44106987935700187 2 181 4 235 1 167 3 101
123 2.5672846843952186 -4.6946536132714574 17.826194946749688 113 79 48 1.4488858784594332 2 182 4 186 1 151 3 142
2026 18.391875708201827 3.0664976308087515 55.126817172171414 178 160 143 1.485327941515673 2 2282 1 2155 3 1599
507 11.024989086968578 -1.6732863987826929 16.405514458266399 113 107 98 0.43564679983002313 2 982 4 771 3 788
124 7.944376273484151 -4.7428943932661056 18.172872812312445 167 166 173 0.80201830360420845 2 183 4 81 3 223
1519 0.23998705954930136 6.2339275786293893 16.971096884111642 49 48 50 0.36922244448110031 2 4240 4 3954 1 4276 3 3835
1004 -2.391346830158926 2.9902385066842636 16.704864838692263 77 64 54 0.58737226820867727 2 3050 4 2790 1 2855
125 -2.3230508646438248 -4.3670389488160462 16.596365673554747 123 111 98 0.4705891629023255 2 184 4 311 1 180
453 10.860586189903245 -2.1200666440021392 16.429648738432888 82 82 83 0.36544749653779229 2 853 4 606
126 2.0780494931245741 -4.7045510106720805 17.953865873838716 87 64 46 1.3430236632009787 2 185 4 210 1 158 3 129
127 5.9480798301013671 -4.653620025833586 17.952714312485451 148 130 110 0.41218925173758214 2 187 4 131 1 155 3 202
785 -3.4905469019923081 0.77096545033403496 15.030146953178907 116 105 95 0.98441062071882057 2 2056 4 1856 1 1781 3 2144
128 -4.1688329700821969 -4.3456316734827993 16.478477891954515 152 163 171 0.7932924587050737 2 188 4 345 1 200
314 0.044607808587916173 -3.393654943234969 17.729591908673029 128 105 83 0.87431168546397453 2 563 4 508 1 529 3 314
129 -3.2722154640388128 -4.2825850812039379 16.341669802365328 184 171 161 0.081995443891015235 2 189 4 337
1302 8.2863838120606133 6.0455555884455912 21.795866874631376 213 187 159 1.0644446518553177 2 3769 4 3963 1 3876 3 3116
130 -1.7730993907097088 -4.3276232432253794 16.615552729130616 142 149 165 0.45634300330358818 2 190 4 308 1 191 3 88
1811 14.793417008037729 -0.58665339423107121 60.295469731226127 169 149 127 1.4612959310148848 2 1701 1 1538 3 1031 3 1086
260 -3.3802794070568014 -3.4597293034631518 16.187076297710743 44 30 18 2.0960320885415435 2 434 4 499 1 442 3 208
1207 -2.5110065619362945 4.5814060305035662 18.10864143572563 67 55 46 0.050924753058739836 2 3562 4 3270
131 3.1859926558023313 -4.7821393024074004 18.419351239808382 95 74 65 0.79906617714615236 2 192 4 194 1 169
789 -2.843117861703786 0.85461421943062943 15.11300126270058 71 54 40 0.8191828950932234 2 2096 4 1905 1 1834 3 2153
132 3.8736443177700854 -4.7091822948273467 18.108975992432491 112 79 52 0.86714731957327484 4 180 3 161
318 11.991754430415225 -3.2003404785364746 16.940397095920083 150 130 109 1.1241186083728496 2 567 4 266
1193 11.956674303515875 3.9591380598465351 16.098680578803013 76 64 54 0.20553149286382849 2 3534 4 3897
2008 4.4930118443018525 3.3664004769002234 63.019983456739773 177 147 117 0.44914512499335751 2 2264 4 2394 1 2104
133 4.2098184874640987 -4.9293494180876403 18.935791676683504 114 81 57 0.61189338065665055 2 194 4 161 1 162
134 -3.3246794266555817 -4.3647803717202169 16.673303911074818 170 157 145 0.49011342583540607 2 195 4 338 1 194
312 11.104333552346242 -3.1592519173540947 16.832050390055265 193 176 157 0.42301007195358353 2 557 4 299
135 -0.51247337242477264 -4.668570281601637 17.909162315475442 163 154 145 0.38666422705416681 2 197 4 276 1 186 3 93
1300 -2.3064401336124747 4.8787797364289771 17.173306905433321 18 17 12 0.14663457979963024 4 3428 1 3669
793 -3.0846312699934861 0.90879389755481399 15.156532336855411 89 64 45 0.6005240848259743 2 2119 4 1904 1 1872 3 2201
136 3.3918234134061391 -4.8534024469955082 18.714937600031121 113 82 60 1.5323086465898461 2 198 4 183 1 174
258 -2.6848513688283817 -3.3803856302976896 15.919137998116481 81 73 69 1.1166524778595375 2 427 4 496 1 420 3 236
137 -2.1020225516115048 -4.2943564846761051 16.596686512224622 93 90 86 0.58841672058660555 2 199 4 326 1 201 3 86
138 1.0921025254961796 -4.6067572930158587 17.844284741821525 182 169 157 1.8268071344493371 2 200 4 231 1 187 3 132
1819 5.6218692443627578 -0.21555915756626959 63.186755859775353 194 173 152 0.53055655929282852 2 1771 4 1866 1 1574
268 -2.1913121234116173 -3.3637158379519208 16.197976167818275 107 100 94 1.0194433309996458 2 452 4 504
1215 2.8760214139430564 5.5703056041799899 22.575235592984448 51 52 55 0.38459945823063024 2 3576 4 3603 1 3565 3 3165
139 1.5437368555365207 -4.5796966907892696 17.787382602158996 106 89 70 0.41354223035124332 2 201 4 236 1 181 3 135
797 -3.9162568005953968 0.92828256327601044 15.029388361097004 114 94 77 1.8382012449347471 2 2127 4 1887 1 1900
140 1.7424539602947051 -4.5878270534979064 17.808628574647777 83 64 44 0.69839957496351945 2 202 4 226 1 182 3 141
262 -1.706676096913937 -3.4771671429447037 16.446452830899908 74 68 61 1.5023315995973086 2 442 4 469 1 431 3 246 1 421
1201 9.4157038230399337 5.4757407997990137 22.633839042151834 123 94 71 0.52388924101915224 2 3547 4 3810 1 3625 3 2874
141 4.6045180691842216 -4.7377114220170355 18.337024140823694 101 70 49 0.75986918114256785 2 203 4 155
142 6.9005638753252772 -4.5991906129793145 17.954693980450692 159 146 132 0.91359325537868807 2 204 4 121 1 157 3 219
256 10.942714121148692 -3.6439679732787336 17.168159044213592 189 169 147 1.3492724496823525 2 422 4 185 3 384
143 8.0994815116390129 -4.6204995570712306 18.013875497254134 175 169 167 0.16910731348176319 2 205 4 93
865 11.574716253809115 1.6461176277198684 15.879140966591933 191 167 140 0.25286788365774399 2 2524 4 2678
266 11.182569911408123 -3.4822824478889292 16.826255457208649 221 203 184 0.15210624388513574 2 449 4 203 3 403
145 2.5245756169011786 -4.7684430704249889 18.506167776642286 121 78 41 0.19120813060652592 2 209 4 211
1382 11.083273933941479 4.8721673617271524 15.502177119959645 176 155 124 0.24026911654443697 2 3941 4 4149
146 4.9049973397549902 -4.8189352434581494 18.84631908820403 103 69 42 1.170336731820947 2 210 4 162 1 177 3 186
1891 4.7438460715498563 1.1163414447882063 63.136818006444507 169 147 123 0.33542727124368704 2 1954 4 2053 1 1785
276 10.726271084445171 -3.4243789544941352 17.044141969899083 198 182 159 1.4373454291019505 2 477 4 247
1159 -2.7890106620519384 3.7585125163948874 15.273586468519399 91 72 56 0.49967117868671607 2 3473 4 3112 1 3331 3 3485
147 -2.9896269732675718 -4.2804399161549513 16.588279711956584 186 169 154 1.6029729982055576 2 212 4 346 1 212 3 70
869 -2.391836785253783 1.7372140481170852 16.359823516991661 87 63 47 2.035685607114667 2 2535 4 2248 1 2271
148 -0.67483067266397345 -4.626594646288166 17.910874531467652 153 179 218 0.59861752717785943 2 213 4 288 1 195 3 92
270 10.922847132572334 -3.4937474995513287 16.985319893958206 99 96 89 0.66441779707473125 2 456 4 213 3 402
149 8.1955517074565822 -4.5984218357112763 18.09388418201122 175 165 155 1.1759689373319011 2 214 4 97 3 240
150 8.39936853372458 -4.6342068233759184 18.193410178134894 164 153 139 0.89694034497655994 2 215 4 88 3 241
264 11.735589735264613 -3.5677194699384502 17.060173319972758 180 162 152 0.46594669655721299 2 444 4 174 3 398
151 -2.5509973633613123 -4.1304169674029891 16.386712528934929 170 155 137 1.018975977458541 4 350 1 222 2 233 3 104
1380 -2.543338010602723 5.455871688666873 17.185326046729713 36 33 27 0.5348667579690537 2 3936 4 3610
873 -2.876354096817539 1.6914358756931935 15.168333398343375 148 132 119 0.55406135029648595 2 2546 4 2229 1 2299 3 2589
152 0.97942677631597264 -4.5527255977570231 17.817990164824071 178 160 143 1.1086588166695088 2 221 4 250 1 192 3 133
274 0.79812613376678621 -3.8729836148995216 18.555682416152735 108 69 36 1.2333081001809598 2 468 4 439 1 434
153 2.8045884012594038 -4.7159833330735603 18.523675991721309 125 82 44 0.96981309540074789 2 222 4 221 1 188
1390 -3.7312552344715604 4.9683557816608133 15.240272309751175 66 56 51 1.6001333636647157 4 3474 1 3880 3 3951
154 6.2996059534997091 -4.5220407379319472 17.97582070083979 114 98 83 0.82695624846438132 2 223 4 141 1 178 3 227
1899 -2.3424684666169262 0.80516633559972028 16.209089601185354 89 67 52 0.76871792813824835 4 1871 1 1811
284 -4.524857364344772 -3.2752648917079861 16.10701992689421 68 65 63 0.28727566277553057 2 498 4 564 1 494
155 7.2872378163531311 -4.5897269736244679 18.119033392099738 87 75 60 0.49448634242260714 2 224 4 122 1 164 3 228
877 12.289179450650041 1.7257889545497347 15.915233897975238 152 132 109 0.19914967628377395 2 2571 4 2764
156 -4.2814393227066594 -4.1838774958329612 16.404459366209206 151 167 180 0.68036727120761886 2 229 4 370 1 230
278 -2.4263745931111886 -3.2280688788998884 15.864397819014263 137 119 97 1.6700592614743972 2 483 4 517 1 467 3 268
1153 4.1446483397427709 5.3805713621531162 23.3145042456885 205 190 176 0.13850306609968793 2 3459 4 3561 1 3451
157 1.3291228194090281 -4.4627997064406406 17.753050726396136 124 105 86 0.66667724885918411 2 230 4 268 1 206 3 157
158 1.450579075458567 -4.4868661606381677 17.857042886180032 153 134 111 1.2407801894054828 2 231 4 269 1 207 3 158
272 -1.7892428888807266 -3.3795178164995994 16.398913364383962 52 43 36 0.4295633907481673 2 466 4 500 1 454 3 258
159 2.1912180315760081 -4.521315869171894 17.895557173486136 113 75 42 1.4604551056196846 2 232 4 237 1 208 3 150
1388 -1.1559617211757509 5.4709081743829957 17.368122574613682 61 53 48 1.2054678334984155 4 3674 1 3902 3 3688
817 -3.1214544618502851 1.1628712170002509 15.149707981834988 66 52 39 0.33793244635960684 2 2273 4 2007 1 1999 3 2331
160 1.8105171884175419 -4.4309683853413064 17.687093870868878 130 108 84 1.0279346538681016 2 234 4 251 1 215 3 167
976 9.1504655022219534 3.8018496022640917 24.805710989129484 170 148 129 0.22375752576009228 2 2956 4 3182 1 2908 3 2386
161 -0.66404202097685072 -4.484323166910352 17.858616439432481 173 166 158 0.064320195197422547 2 237 4 312
1334 4.1431129492726262 6.127805764708901 21.276341595358311 54 54 57 0.22530627813668308 2 3835 4 3852
1843 8.5601301040854754 0.25715778621621882 63.33952564537352 185 160 135 0.63953051441697129 2 1832 1 1660 3 1204
292 11.196549292328534 -3.3245863308921586 16.912854785257579 81 76 70 1.4979610161738677 2 512 4 248 3 435
1111 12.112492027204095 3.5585523545622291 15.996706165243729 119 96 74 0.80938641549168233 2 3355 4 3752 3 2552
163 8.2105989917685154 -4.4938339962506131 18.153073242713095 110 98 85 0.58957296668954395 2 239 4 123
2002 -3.6413064236215567 2.3463626200955101 37.464841225797976 109 90 75 0.87906144895492522 2 2303 4 2265 1 2091
821 -2.6134046261105799 1.2501833512849836 16.085910049942402 98 73 56 0.16530282411835553 2 2287 4 2045
164 8.4709396229445648 -4.5247917001394828 18.167132109854933 100 88 76 0.6475632310261219 2 240 4 106
1495 -4.4344146485263369 5.4811246365919333 15.047497432730394 119 101 89 1.3267226548451529 2 4184 4 3639 1 4077
980 -2.9437831235721981 2.5485813648383258 15.055945790567945 79 63 51 1.9831785317333663 2 2967 4 2624 1 2753 1 2761 3 2987 3 3001
165 8.5716983453173423 -4.5130803577820497 18.176018848041959 130 129 130 0.72750603246231937 2 241 4 107 3 257
166 -1.833569637665448 -4.0758813348022596 16.421854826390348 161 146 130 0.89599742751686939 2 245 4 354 1 231 3 126
1489 -3.2146481329414356 5.4179506331735334 15.085368292343031 85 62 44 0.97325245353981926 2 4170 4 3666 1 4091 3 4046
167 5.7062656723434744 -4.6071309027363228 18.547149059451808 125 87 52 0.39892102778382332 2 249 4 169 1 197
825 12.263213739835821 1.2482011367942554 15.941583059947439 99 82 66 0.84889532228896447 2 2321 4 2416
168 5.9958643311271356 -4.483943289204011 18.194512151642833 128 89 53 1.9790188860906179 2 250 4 170 1 210 3 226
290 10.364173298507961 -3.3842108167624358 17.157948798658914 180 160 138 0.24288085967430867 2 510 4 281
984 -4.5283746309805988 2.5725612388804131 14.705423618743508 88 68 50 1.5706689031046543 2 2988 4 2563 1 2759
169 7.7571452538385888 -4.5031446384445255 18.243335611287478 139 121 103 0.34897932820031641 2 252 4 134
1342 -2.5428680824381824 5.0418349491501084 16.680646632414422 61 48 39 0.26427181762361979 2 3856 4 3496 1 3787
170 7.9930576353102643 -4.4790537185997454 18.128598385178798 136 120 102 0.032644219827841561 2 253 4 129
1851 9.7406677986072854 0.45290925230219747 58.772830752080012 183 165 143 0.37107517208105584 2 1875 1 1679 3 1232
300 -3.7936336885849804 -3.1935149967170142 16.109715030149022 127 117 111 1.1515354851955362 2 525 4 557 1 515
1119 7.7193749899483111 4.9259913749507733 22.465857576946583 202 184 162 0.64147604899850397 2 3374 4 3613 1 3407 3 2799
171 -2.2557530436184217 -4.0757370459582765 16.482051892864501 109 100 94 1.0314223728838039 2 255 4 361 1 235 3 115
2010 10.898458572627405 1.7946333791507902 30.696470288348145 171 144 123 0.65516385672726007 4 2396 1 2106
829 -4.5308111626842846 1.2919663947102498 14.907931565784317 95 76 60 0.15253181808386596 2 2341 4 2033 1 2060
172 -0.19355767868073265 -4.4664857559746398 17.925632707278794 90 79 69 0.61641168243687305 2 257 4 313 1 223 3 128
1503 -1.9663812463883605 5.9675989640408895 16.474634112544191 46 46 48 0.80193155812964978 2 4197 4 3803 1 4169 3 3962
294 -2.0549306661926829 -3.2443716161878622 16.351520954073823 68 56 47 0.84757044501616108 2 515 4 539 1 496 3 273
1105 -2.7657311870750063 3.5579888339422019 15.886945158177696 90 71 57 0.15533854370732925 2 3334 4 3022
1984 0.082510562353250799 3.1053562014743368 67.171330999611598 194 160 128 0.17540890762472219 2 2201 4 2309 1 2032
988 8.1434367366546461 4.0261003739731382 24.833498192990156 146 127 107 1.0583058793543225 2 3003 4 3213 1 2945 3 2474
173 0.21073437527605698 -4.414612369608454 17.756373188746377 118 97 76 1.3928196778168886 2 258 4 302 1 224 2 259 3 134
174 6.5392381779982278 -4.4577235920606944 18.140406239500969 124 100 77 0.69722489431971191 2 260 4 167 1 198
1497 -1.491873052221713 5.9746187503722181 16.68061182433004 17 18 16 1.2278795130228448 2 4187 4 3818 1 4160 3 3900
288 -0.75577399814628465 -3.3743498298688652 16.902999423895174 157 145 134 2.0231881514813019 2 505 4 497 1 489 3 288
175 6.6373557836186272 -4.4245075239599609 17.986039567130554 100 80 61 1.656368350663193 2 261 4 142 1 211 3 243
1340 -3.5695449647359583 4.6263851958776208 15.145844536474979 67 57 53 0.67677940731572972 2 3854 4 3389 1 3743 3 3820
769 -3.2887612673406563 0.64664125300033282 15.083792961508319 63 44 31 0.44167388702160748 2 1976 4 1801 1 1707 3 2067
176 6.9511233283122449 -4.3956289344467345 17.930751715215468 163 146 129 0.58281938019069524 2 262 4 156 1 199
298 9.0716449533119334 -3.5857541685996019 18.291748142910052 149 130 111 0.38458151178473787 2 521 4 328
177 7.0534233900779819 -4.4029291466435421 17.958268417827661 132 117 99 0.34980463977463694 2 263 4 152
178 -3.6509617293592762 -4.0320882187872238 16.240608296422479 130 109 86 0.47320525882201531 2 265 4 387 1 242
1795 11.208511547440105 -0.79383009963630491 59.303430627748007 198 180 157 0.27731249740172342 2 1672 1 1487 3 1030
308 10.89622548244326 -3.1818102690869927 16.808420919166764 86 66 49 0.95234550551509267 2 543 4 298
1191 6.4805634547971636 5.3621903830887039 22.476625693129677 135 117 101 0.64263982050747903 2 3531 4 3680 1 3560 3 2952
179 -4.9801178448016641 -3.9864162980480851 15.969922172546116 151 143 124 0.55653781436240379 4 404 1 249
773 -2.4448450793624725 0.69275653482041599 17.564559918879048 59 47 41 0.28018484418688433 2 1989 4 1843
180 0.73932252444017577 -4.31680750743811 17.770328894970113 110 96 82 1.5145815816854791 2 271 4 309 1 244 3 174
302 8.6606751626545773 -3.539086391905971 18.18644469441136 111 91 72 0.43003402872808372 2 530 4 340
1113 -0.18946463921721315 4.9190373226291859 22.463221053005107 44 45 48 0.5423833273384121 2 3358 4 3295 1 3283 3 3141
1992 2.6302261038210126 3.2733568079315654 64.385507275629649 168 134 95 0.31903676337497733 2 2246 4 2360 1 2065
181 1.5817282849719239 -4.3232664390558542 17.705660956193086 160 142 126 0.4628057682370238 2 272 4 294 1 233 3 179
182 2.1880281514359234 -4.559020060938427 18.626278259297962 131 112 108 1.2001635104625688 2 273 4 285 1 228
296 10.549301698426374 -3.3088517331478764 16.999995557741656 192 175 153 0.69181145540852129 2 519 4 286
183 6.1962382688217046 -4.4425564873686252 18.162067093472128 113 77 47 2.1469217441871016 2 274 4 166 1 216
1284 -0.16618512945475433 5.0338181639768225 18.184164444174776 76 69 67 2.0997532356382553 2 3730 4 3550 1 3673
777 -2.5389317454071234 0.71350540746727076 15.397290127498348 79 60 46 1.4803663827259577 2 2013 4 1842 1 1761
184 7.172857462374699 -4.364414109760288 17.947430592036774 173 156 138 1.3803339997893351 2 276 4 157 1 217 3 244
306 11.357199843426763 -3.258411457412917 16.860698529904958 132 122 113 1.1020586898735858 2 536 4 255
185 8.1113137355771983 -4.3786099559687699 18.126356082418081 153 138 127 1.1918850974784743 2 277 4 144 3 264
1294 -2.7197057745145936 4.5143280014908438 15.81252576602547 88 64 48 0.020044576926357048 2 3752 4 3352
186 12.258932057519026 -4.0650126785553224 16.771968557602932 156 155 161 0.59127161377711168 4 48 3 333
1803 -0.63845806322059973 -0.67185037922739688 73.40780325718022 154 129 103 0.99716720073230947 2 1709 4 1825 1 1520
316 11.204042735886375 -3.153528383567918 16.780516290832963 145 129 116 0.7724715746242512 2 565 4 291
1199 9.0101950338568813 5.4403012025510513 22.594178921243238 79 56 39 0.99091652272672137 2 3543 4 3795 1 3603 3 2891
187 -4.4321175007397757 -3.9408092402008008 16.131610870515772 132 134 133 0.36394157464352156 2 281 4 417 1 262
781 12.041678912786592 0.7389267168263518 15.87671037385805 131 103 74 0.13861929027019779 2 2032 4 2066
188 -3.2490800286917487 -3.9779699973111735 16.349909132699594 157 141 130 1.0458027722691008 2 282 4 399 1 254
310 -4.2798069227456041 -3.1006388168160881 16.115851267569379 79 71 64 0.47796294041848858 2 553 4 603 1 539
1185 12.129730992220114 3.9380101635394817 16.061182699944716 98 79 61 0.45736929312426755 2 3520 4 3902
189 7.2786992150082579 -4.2944962346275286 17.919694381208661 118 92 71 0.9345574032675763 2 284 4 171
190 -4.2575316326672432 -3.9358508959527176 16.146097187008337 164 170 169 0.28417490872868545 2 287 4 407
304 11.985330668074255 -3.2960716950401414 16.981401965735209 148 130 107 1.1029610612390102 2 532 4 234 3 464
191 -4.3280068667575815 -4.0045872187671447 16.411485445900436 149 135 116 0.81574134176790325 2 288 4 408 1 263
1292 3.2975248421584409 6.0457692618117376 22.144697040083862 51 50 49 0.3770936178506662 2 3747 4 3759 1 3758 3 3290
849 -2.9553527941141859 1.4770086417363055 15.174295304953313 101 90 80 0.35467067835512478 2 2425 4 2136 1 2176 3 2471
192 -1.714248764419694 -4.0356443191742359 16.738923590120191 100 92 84 1.1828370861218913 2 291 4 378 1 250 3 144
1574 6.9664828568331458 6.7474644310088463 17.163478347308217 183 159 136 0.94300361266695909 4 4276 1 4573
378 -3.3061638613568043 -2.4181364884320242 15.000318063375776 102 84 69 0.47345820233373304 2 691 3 424
2599 10.877477637515302 1.1191847929098671 16.905283893709878 191 169 140 0.16582641989032737 2 2214 3 1770
193 1.3042589667251987 -4.2338579731578108 17.690428187136895 137 124 112 0.70125821231141883 2 292 4 314 1 248 3 194
1366 -3.8964100254963046 4.7696633639696273 15.001510292421601 169 142 109 0.50303926173207503 2 3909 4 3425 1 3814 3 3908
194 6.5101343509032645 -4.3290322701538502 18.218645637489271 60 36 20 1.5692099193089131 2 294 4 196 1 241
1875 24.384946138710543 0.5395094250293383 75.881597591463802 217 206 192 0.57698416042975198 2 1879 1 1730 3 1163
324 -2.5959432931557176 -2.9834527040801286 15.994328922894987 134 123 108 0.96294747068955455 2 576 4 588 1 556 3 319
1271 2.7260255380095049 5.9422732011007744 22.303340805856255 52 51 51 1.7351313021017081 2 3709 4 3717 1 3679 3 3280
195 8.6986830070362444 -4.3559544238316459 18.138217391221879 135 120 103 1.1528782203426151 2 295 4 132
853 12.086340692366631 1.5090215024490761 15.916292109358805 52 43 35 0.39914097827802025 2 2438 4 2607 3 1918
196 12.124578413160448 -4.1064742157765233 17.225633106608118 171 156 146 0.64528477453872923 2 296 4 59 3 336
382 -1.7257890293013902 -2.5219378346162844 16.005066307607638 166 148 125 2.0642263165173462 2 699 4 698 1 686 3 461
1257 -2.6898431199407828 4.1996361877981894 15.207177343249887 116 96 79 1.4619761502672333 2 3680 4 3248 1 3574 2 3681 3 3615
197 -4.0578631755877952 -3.9616533124876963 16.435959906998523 161 149 136 0.56587380956481781 2 298 4 418 1 282
2596 10.075743870483013 -1.4951857865454985 16.465303770404869 137 114 94 0.24572896628590438 2 1045 3 825
198 -2.8061814238942331 -3.9348207495602381 16.348983381002146 194 178 168 1.4199709629162007 2 300 4 394 1 264 1 265 3 131
376 10.317757070734007 -2.7284943269817497 16.770185195749214 158 140 121 0.60515667967814801 4 434 3 549 2 685
199 -3.7510205788267101 -3.8953356838028426 16.303646127674256 133 118 102 1.7599548671241845 2 313 4 431 1 274
1364 5.9799110471285317 6.1501844931687915 20.309210397621349 84 76 67 0.3073243284777083 2 3902 4 3978 1 4001 3 3306
1573 4.2822894539647516 6.4433020555820164 16.527361188935064 207 188 170 0.13891260668249189 2 4383 4 4147
857 -3.7948591426774958 1.5381099750952558 14.960187622998028 147 126 103 0.43372642206675788 2 2472 4 2142 1 2215 3 2563
200 7.6952936067616404 -4.2325326537301793 18.015294778704128 105 84 67 0.042440100597972812 2 314 4 181
1582 -3.7549678676678133 6.0468899849919229 15.039888408129748 156 136 113 1.7833969547186783 2 4407 4 3816 1 4328 2 4366
322 -3.1288208764109497 -3.0188332953541059 16.051011055400817 62 52 45 0.96291875786430448 2 571 4 604 1 548 3 308
201 8.5442081819259368 -4.3010734452318919 18.215892841884326 81 64 47 0.63744518147857376 2 315 4 150
1374 -2.4288243963242735 5.4880976223312512 17.417880973497457 18 19 18 0.69810868579741037 2 3924 4 3626 1 3881
2600 7.9431450970458011 4.2682020097203788 33.105654989742362 213 192 172 0.43335131391602877 1 2720 3 2273
202 8.8345974847234459 -4.256391046815903 18.197355219913597 146 145 148 1.1544920118566162 2 316 4 153 3 292
1883 11.069151657690737 0.90843862041716406 59.64113376800595 103 77 58 0.52221880049223113 2 1938 1 1766 3 1301
332 -4.5567996909413049 -2.9096853241786 15.872200544577984 156 142 126 0.57470919137553611 2 594 4 648 1 587
1279 9.3230083405952335 6.0640312208935434 22.6341288955572 153 122 94 0.49343996087587622 2 3721 4 3964 1 3839 3 3006
203 -2.206428626122892 -3.9544642512638641 16.401525487402189 77 69 63 0.49397300683475048 4 388 1 255 3 138
861 11.073760405880046 1.6398097438960748 15.828570600656219 162 142 122 0.90028654624176674 2 2511 4 2670 3 1985
204 -2.0489312995083862 -3.8965376840720349 16.43939083827588 96 79 64 0.75376303310472648 2 318 4 395 1 277 3 154
326 8.790812839225179 -3.3385175820509088 18.068608575090661 171 145 119 0.60751891442041883 2 578 4 381 3 421
1265 -2.5210793050167357 4.9708647636161176 18.179856039481585 41 38 33 0.12657379587758283 2 3696 4 3402
2595 12.094701165877023 -2.125432764513695 16.225900067809913 119 93 71 0.79151122124600692 4 566 3 671
205 7.4432118637773641 -4.2094899324902801 17.97344744817979 149 134 121 1.1102790486197653 2 320 4 189 1 237 3 271
206 8.3955778925817448 -4.2494857912702386 18.187587628121349 139 121 105 1.2000041952786984 2 321 4 172 3 280
320 -0.61476041320093133 -3.3154744613845573 17.608951519567498 126 105 88 1.2853710136342169 2 569 4 540 1 550 3 322
207 11.390898351901226 -3.9181850417489099 16.952384136204703 172 183 204 0.45083063711629062 2 324 4 98 3 346
1372 10.091604612050762 6.2080175541711622 20.246092767191353 161 132 106 0.45537281243229549 2 3919 4 4132
1581 6.1060353583762561 6.4118900944001727 16.289887585330796 219 195 176 0.82341898700593741 2 4400 4 4231 1 4562 3 3595
929 10.830941323806233 2.1920525959184061 16.17210867459686 198 172 143 0.51156197488195199 2 2790 4 2957
208 11.815369248203297 -3.9822075859448094 17.127596138509627 184 193 208 0.61914768976318735 2 325 4 82 3 343
1590 -2.3627889901200909 6.2352439390923369 15.335653679397169 26 22 19 0.46192646278465771 2 4426 4 3934 1 4415 3 4177
330 11.689326781816822 -3.0327245082021688 16.758622524201193 145 124 104 0.15821428113248281 2 592 4 318
2615 4.7743737358641392 6.5193077190760924 15.467787915868346 215 193 174 0.81658641116999453 1 4626 3 3735
209 -3.5630819250763528 -3.8314865761136288 16.304008984752954 97 82 72 1.2666490286765819 2 327 4 425 1 321
1446 11.212640449606784 5.1591046124894904 15.327933314202728 188 171 154 0.32646662104018498 2 4078 4 4250
210 -2.3473277312837895 -3.8095727793674503 16.315106996874555 140 129 119 0.97924808848941036 2 329 4 409 1 306 3 168
1955 -2.8852360167694706 1.0705520224992515 15.126139210009329 93 75 62 0.58990187005304373 2 2217 1 1959 3 2256
549 -1.9085242878120614 -1.8486227026498661 20.3625216486734 126 94 66 0.59225674344083235 2 1073 4 1024
340 11.581110643725378 -2.9604761400548019 16.785899406555547 127 104 82 0.082964473976522971 2 611 4 344
1223 -2.4517044285187612 4.470073050829356 17.391030212811348 44 35 28 0.41450677420490473 2 3592 4 3256
211 0.38827809835348687 -4.1471810042193145 17.738992576200278 144 120 97 0.67223957179718585 2 330 4 351 1 283 3 193
933 8.459682517097697 3.2168110723077157 24.676533299002397 190 172 155 0.22592756335235992 2 2807 4 2980
212 0.81516305662417265 -4.1158265812226382 17.730805307713499 144 123 100 0.55351280275564829 2 331 4 355 1 298 3 205
334 -1.1979641331226876 -2.9955624114845709 16.4933983739223 118 103 89 0.65169360401591758 2 597 4 583 1 570 3 347
1273 9.9381486095320533 6.0286172140743259 22.627296845732154 169 136 98 0.0060591447736036193 2 3712 4 3979
213 7.0610268646434671 -4.1406207794620951 17.960521276171221 108 83 59 0.99307749655013222 2 332 4 217 1 252 3 278
2612 10.853332890060136 5.5949537295221088 14.937558825891964 105 78 56 0.11094878305611949 2 4285 3 3265
214 -4.7585976062206479 -3.7157709198385942 15.946394026972101 139 119 98 0.76902200178674673 2 334 4 459 1 336
328 8.3991112744187433 -3.384056482869382 18.200936340843565 114 89 66 2.0186609315175832 2 584 4 374 3 419 2 573
215 -2.4600784907149866 -3.7578756056774201 16.219208589215022 80 72 68 1.0156885716769075 2 336 4 419 1 323 3 171
1444 5.9989743104610032 6.2874708577174871 18.917463011318858 185 158 132 0.35269179915229021 2 4074 4 4066 1 4189 3 3420
1589 5.5711765197734628 6.4595743862415151 16.31217659267606 198 172 150 0.61918826317957942 2 4424 4 4212 1 4561
937 9.0684149582818137 3.3409547078669197 24.791873109001227 147 120 95 0.50732358682289114 2 2830 4 3036 1 2749 3 2258
216 -1.4974119128762273 -3.8621141988950631 16.693894494538096 90 90 93 0.76471366518106743 2 337 4 400 1 326 3 183
1598 7.8175759973032823 6.5148656260843296 16.331589799945966 183 158 130 1.545733974252363 2 4448 4 4317
338 -1.6897659294167826 -2.9343915647398133 16.380010150235201 119 99 80 0.49239162224769872 2 605 4 619 1 588 3 353
1571 7.5642186427901299 6.3974507974160009 16.529902224988039 162 137 115 0.40010109160739082 2 4375 4 4271
217 11.609884171377622 -3.9294498658878028 17.115641281292046 155 176 204 0.4101625375176256 2 339 4 100
1454 -4.288878535121583 5.3101140193782399 15.076653533663213 64 43 24 1.131965107034586 2 4102 4 3599 1 4013
2616 -0.15902855323973256 6.3711998490424548 17.049966032446019 53 53 55 0.32143709803352805 4 3959 3 3892
218 -2.1480355237986801 -3.7585223001002608 16.251003297380077 116 107 99 0.82722501768223933 2 341 4 410 1 325 3 177
557 -2.0823214064452182 -1.1633828914416182 14.597416274378336 144 137 128 0.56146897179044797 2 1090 4 1035 1 976 3 911
348 8.5276954467827597 -3.2395320607989175 18.2963416299085 127 108 90 1.385227501044124 2 625 4 411 3 443
1231 -2.539273893709177 4.2135036443349572 15.914087171479343 93 70 54 1.7147948426205353 2 3614 1 3491 3 3544
219 7.9455710775605564 -4.130752016251094 18.076312772981872 139 125 113 0.65551743990484068 2 342 4 200 3 296
941 -2.5081871221924388 2.8892566106086406 20.250136177838247 48 43 37 0.075247200019840976 2 2840 4 2660
220 8.1416443438504036 -4.1286755393498087 18.122650358784512 108 95 84 0.17915200692293776 2 347 4 202 3 297
342 10.536145870245532 -2.9398616921073115 16.691478191400314 61 46 29 1.0289401553708166 2 616 4 359
1217 6.8462814904782823 5.5925866359349161 22.696011075638634 48 37 25 0.75193191904505008 2 3578 4 3749 1 3623
2611 11.741187421595098 5.3128177581351625 14.151760741094737 177 153 135 0.42961526714896059 2 4280 3 3199
221 -2.6182876562759709 -3.6891107571358162 16.049819235871247 127 114 102 2.0006297239385042 2 352 4 436 1 312
222 0.97906544222851788 -4.0704765639338527 17.688592601780144 80 63 48 2.0235644918494624 2 353 4 357 1 284
545 11.849232190596819 -1.3894820180115466 16.453305934470421 201 179 157 2.1418333495097555 2 1068 4 876 3 862
336 -1.9194684089058935 -2.8479601948765323 15.933868417728904 105 100 92 0.86811104371712933 2 603 4 618 1 582 3 363
223 11.180612989034598 -3.8944333808831226 17.237307951134117 161 183 213 1.1361966757053616 2 355 4 124 3 349
1452 1.2363443971985131 5.8864190091784749 17.28780277775947 119 118 120 0.0023942747699672224 4 3885 3 3664
1597 -3.5598050432019632 6.2629559941615112 15.189996768273044 107 80 52 0.97667652008439432 2 4446 4 3883 1 4406 3 4300
881 -2.63129314045575 1.790467026491531 15.510850920740539 98 69 46 0.70272858435716989 2 2591 4 2291
224 -2.0497594737505054 -3.7502990735560848 16.512075450025641 159 148 139 1.0749731979294801 2 357 4 420 1 338 3 195
282 9.9098776894169767 -3.4831431235071566 17.318601312184231 187 191 201 0.33613941121340579 2 493 4 271
225 1.0209956105813813 -4.0621444234601922 17.877742625979749 87 64 44 0.7831856494426791 2 359 4 358 1 330 3 222
1398 -1.4054093599883393 5.5786055348691512 17.288327406571291 60 59 58 0.67420738759231302 2 3970 4 3685 1 3962 3 3728
226 7.5959872944869087 -4.0735368860215218 18.118053987503473 85 66 50 1.9839187586921063 2 363 4 227 3 291
1907 -3.3764850423749597 1.5389807011641092 51.938281836689733 188 162 137 1.1361830821587888 4 2086 1 1836
356 -3.8209411990667137 -2.8291180786441199 16.082061751481064 62 49 39 2.0476391761174262 2 644 4 664 1 602 2 613
1175 -2.8273295609414415 4.9065744179320729 20.150671157389407 18 18 14 1.0497070535558608 2 3503 4 3294
227 8.6683767578598037 -4.0766851500313521 18.108918647782012 118 94 73 0.50633993041946312 2 364 4 198
885 -2.5265511860819161 1.99489591793601 16.706100480599204 88 64 48 0.75222941452373904 2 2638 4 2355 1 2410
228 11.669290161079148 -3.8696851790625182 17.25954007754849 166 152 133 0.60688811278508403 2 365 4 115
286 -3.3375792611170683 -3.2802185807571154 16.128278787457845 79 68 57 1.4600652284693443 2 503 4 537 1 482 3 245
1161 -2.5099841016195694 4.512677752485124 18.538575007465703 33 29 23 1.1531352633479128 2 3478 4 3240 1 3374
229 12.030342542507084 -3.8135322663510394 17.181190380336858 148 134 119 2.0210943128163632 2 366 4 118 3 372
230 -2.0931184786462089 -3.6626205651254242 16.333236925181136 151 135 119 0.24469089742431366 2 369 4 437
280 -1.4904556973828862 -3.3689052926626148 16.588458827408992 125 116 104 2.3359607665002491 2 490 4 505 1 475 3 265
231 0.064473705380134236 -4.0231552363016592 17.848492991154288 137 120 105 1.1585822698163259 2 371 4 379 1 345 3 217
1396 11.679484864292592 4.9960078738741132 15.674323205865072 166 147 131 0.9811681633052215 2 3967 4 4190 3 3007
889 -2.7034392244859937 1.871820228304008 15.123298550989878 138 115 93 1.5465962058095721 2 2655 4 2303 1 2401 3 2687
232 7.2625182006146671 -3.9912397225121161 17.923810729531638 132 107 82 1.3812118870623955 2 372 4 245 1 300 3 305
354 -0.69113790494186789 -3.0980556336320753 17.789661351871896 32 32 27 1.3402100076343169 2 639 4 628 1 603
233 -4.5978817636874751 -3.6226004119493473 16.050693347778779 89 71 53 0.44108421759224375 2 374 4 486 1 372
1406 -3.6785001975475273 5.0493880431740807 15.146504185505906 36 35 34 1.3641224146093669 2 3986 4 3515 1 3910 3 3977
234 -4.3614871425043171 -3.6422953270043834 16.174307820167339 77 60 43 0.78426764151891437 2 375 4 487 1 374
1915 -2.4569094553654183 1.6576569063136632 54.831986461322636 174 152 130 0.2851436726875643 2 2060 4 2097 1 1854
364 11.520322461923849 -2.8019443028575139 16.781609217925581 90 75 58 0.65300878242371629 2 661 4 391 3 541
235 -3.558015608785031 -3.603109924058487 16.068495107585971 70 52 34 0.48196897965550772 4 460 1 378 2 378
893 -2.6548721941029925 2.1918254325711168 18.329579983078826 35 26 18 0.23922142981748157 2 2671 4 2412
236 -1.4776665703822849 -3.7109635852902794 16.624442899591191 82 75 70 0.75550013922033088 2 379 4 432 1 356 3 216
358 10.701167334945122 -2.7740905351819594 16.499798482533716 142 124 102 1.473234438414696 2 647 4 403 3 531
1169 -2.7977030189854184 4.7153518716188367 19.577330147132685 10 12 10 0.84107101105604576 2 3493 4 3231
237 11.091100616665971 -3.7885896799487901 17.196152197333614 166 180 201 0.37794770416938361 2 380 4 145
238 1.2674109803856128 -4.1350277231157335 18.530127359573491 113 86 63 0.75211839548055293 2 386 4 380 1 346
352 -4.1665344219742968 -2.8086729926920433 15.978614727432266 103 85 73 0.50396199693684396 2 634 4 661
239 7.7792750450886654 -3.9428503006260542 17.967761896212096 123 114 103 0.94636642854410225 2 387 4 246 3 317
1404 0.79699692085427354 5.9870558852531337 18.66282079376218 52 53 55 0.89661861200738868 2 3982 4 3807
833 -2.4740224673264053 1.3876349220471453 15.894908932591642 91 62 40 2.3214231994376351 2 2361 4 2092 1 2110 3 2375
240 9.1214295728318486 -4.0498601839297086 18.297311524931708 127 109 93 0.23154004213559717 2 388 4 206 3 324
362 9.9566835243401606 -2.8280619329272176 16.806454566344197 202 183 166 2.0380571246795243 2 659 4 412 3 514
241 10.831734439505611 -3.7851172602535028 17.188648240750457 159 162 171 2.0518387596025338 2 389 4 151 3 362
1350 0.75679549913461075 5.9973271864897155 19.998738526972442 54 55 60 0.81934277022539126 2 3875 4 3758 1 3888
242 10.964139929529031 -3.7400715483429705 17.131768418470966 173 183 198 0.9136288738934446 2 390 4 159
1859 -3.1529041376113365 0.76921095087249636 55.382661174293375 80 69 63 0.77683630412342153 2 1920 1 1698 4 1970
372 12.1170281383203 -2.7646590274638569 16.740266173223041 133 110 88 1.242540840240753 2 678 4 377
1255 0.97367657898944293 5.8263288757544336 22.119603870275444 36 35 35 0.59582938256720441 2 3678 4 3618 1 3654 3 3350
243 -3.9707837008225821 -3.570811287637019 16.052269390675594 176 157 130 1.1060536117558102 2 396 4 468 1 382
837 -2.4386771058092616 1.5441087925464958 17.788301725016083 93 72 56 0.74547697566962279 2 2369 4 2162 1 2152
366 -1.0722725855728206 -2.8074896545152646 16.643265212192276 101 70 46 1.4685177235809195 2 665 4 649 1 625 3 389
1177 4.9129965366950143 5.3402114616865299 22.672900802122289 155 148 142 0.99032108558238396 4 3620 1 3497 2 3498 3 2995
246 -3.2286141455870636 -3.5496666094585607 16.144647686002592 42 37 36 0.80341538339372787 2 400 4 479 1 383 3 199
360 10.450340655311225 -2.8953727489484473 16.987488473965268 126 112 96 1.5397317007137945 4 401 3 519 2 631
247 -2.5923325031004025 -3.5197887876753464 16.064058021507709 101 95 92 1.1899428749630887 2 401 4 461 1 385 3 214
1348 10.346846477662169 6.1380363231346262 20.695046302225958 122 111 97 1.197715451697444 4 4110 3 3079
841 -4.0397290261450394 1.4012250523816419 14.886955636610558 139 117 98 0.79373472373520737 2 2390 4 2091 1 2129
248 -1.8400134551731475 -3.5909349074840216 16.435668091571905 131 123 113 0.36955520785556784 2 403 4 448 1 388 3 224
370 -3.6609506315659486 -2.5158299061959033 14.976772711968243 151 145 136 1.7986067331588678 2 675 4 697 1 638 2 643
249 10.66896943294442 -3.6490178870698808 16.932806479294431 126 111 93 0.046848215936369779 2 405 4 173
1358 7.8143605185464287 6.2481618431210864 20.810400515334038 99 84 71 0.89208781785534819 2 3891 4 4033 1 4019 3 3220
250 11.307041010536379 -3.6293398114335575 16.81770867741314 193 179 163 0.62274713872007925 2 406 4 154 3 382
1867 8.5213194745341347 0.67172773416438958 63.519477120784742 213 193 174 1.6037455024891534 2 1896 1 1715 3 1251 3 1269
380 9.511088035734792 -2.678543807574159 16.82293674936243 112 90 70 0.96167464344717712 2 697 4 472 3 548
1263 9.5986108868080731 6.0178179826867435 22.639072641905102 128 92 64 1.2487223715287161 4 3965 1 3822 2 3711 3 2978
251 11.611358532268612 -3.6441603617483325 17.08183941930394 122 108 93 1.1731269336393413 2 411 4 163
845 11.020984447231641 1.4363922335110004 15.854812966324999 125 103 84 1.3650156012460282 2 2416 4 2495
252 9.469675863913821 -3.950420035209246 18.243198694402373 150 139 129 1.2344948071562782 2 413 4 208 3 342
374 -0.94280445643291066 -2.9584002142728631 17.709289230901149 75 54 38 0.56112529230717645 2 682 4 650 1 646
1249 2.8729943162241494 5.8621868615944095 22.538125192661898 25 24 24 1.3354358195298073 2 3661 4 3679 1 3662 3 3234
253 -2.242808443871481 -3.4461187097473385 16.110856113441919 116 103 86 1.3198333731682965 2 418 4 480 1 413 3 233
254 -2.0097849212082619 -3.5496117965469218 16.45901729417702 79 67 57 1.0935965394122666 2 419 4 454 1 403 3 230
368 -1.6152528909038402 -2.691972270236874 16.126808287266403 174 161 148 1.3677105856134379 2 670 4 655 1 639 3 399
255 -1.4046382110170359 -3.566068307168341 16.631116079891314 41 36 30 0.52595526061774278 2 420 4 452 1 408 3 237
1356 -2.5501310639421386 5.296591770133551 17.155036748516348 38 32 25 0.29464622144800634 2 3888 4 3567
688 12.167549924219744 -0.17579552986974362 15.998444088477692 129 115 101 0.40773200142966587 2 1504 4 1466 3 1295
257 -4.3945837394543288 -3.474852336933592 16.138511083585911 81 80 83 0.81858848374477855 2 425 4 516 1 429
259 10.337227997182517 -3.6064026896284993 17.103168812150216 203 195 188 1.7221792508657789 2 429 4 212 3 368 3 386
1714 -1.5867581781146796 -2.369084096793681 15.830108524760252 115 91 67 0.76982106087076552 4 728 1 714 3 494
692 -2.4547102534051186 -0.1316325030587969 15.204765759742555 60 40 23 0.58015570656061 2 1510 4 1446 1 1290
261 7.676555066106082 -3.8234688046657359 17.987968075752654 92 74 57 1.6846697117101677 2 437 4 270 3 341
263 11.657460256789632 -3.5633072813677193 17.145153525479628 133 124 108 0.95610312502168426 2 443 4 191
696 11.467301412195841 -0.13279327441561914 16.131067724836981 115 100 86 1.2240383578747271 2 1522 4 1494 3 1335
265 10.17010425537992 -3.5535235494485855 17.18038712206025 170 183 202 0.59310748795612112 2 448 4 233
267 -3.9195975272317432 -3.406299587586235 16.18299695482369 73 70 69 0.65780327158695895 2 450 4 526 1 447
1722 -3.3460144530879323 -1.8290506401295272 14.857821166656636 143 126 104 1.6265040497158754 2 872 1 823 3 627
700 -2.337371464922156 -0.23751391346570064 18.756734423623431 70 48 33 0.71022607627068413 2 1535 4 1484 1 1314
269 8.5360867085984307 -3.7005411885722217 17.911055130984053 143 118 90 0.8318378669251556 2 455 4 290
271 12.156473198302866 -3.5670406633885174 17.256425695063289 95 91 81 0.67327383697919418 2 463 4 176
640 11.997998602031231 -0.58836486184692649 15.998023158943132 104 94 79 0.54072820285102419 2 1308 4 1226 3 1130
273 0.39450381753128427 -3.6836834712806077 17.731220417510851 133 116 100 1.0966174140319112 2 467 4 443 1 433 3 269
275 9.2379406824718107 -3.7616715325794998 18.269757880175881 119 92 69 0.79719388005301672 2 469 4 280 3 365
1666 -2.9325618590543563 -3.4960673739944275 16.004005598561061 119 103 88 0.51636633198370696 2 408 1 393 3 210
644 -2.0256309193650055 -0.82056420390066498 19.515170084282367 99 72 49 0.48731186296273205 2 1315 4 1282
277 11.504901707807674 -3.4379908392532665 17.024468237788948 91 70 53 0.72569462832842047 2 478 4 219
279 10.466482041995867 -3.4956410023294917 17.154991728321203 163 150 132 1.7013769401409251 2 487 4 228
648 -4.5505294177270637 -0.48133440485493384 14.713327975676886 127 109 90 0.38807555870434002 2 1329 4 1295 1 1128
281 9.6884310916128555 -3.737282998379563 18.255436519612186 164 149 134 1.9129147352852727 2 491 4 254
283 -4.5424968851631009 -3.2201448328433346 15.867540522452684 87 83 78 1.2343631782684581 2 497 4 577 1 487
1674 7.6759631123220222 -3.8732162788240689 19.167609264796482 118 93 94 0.55469282635250416 2 506 1 438 3 344
652 12.215949678782879 -0.47479131516729361 15.959775375565252 174 147 120 0.20541168509676838 2 1357 4 1278
285 11.588105295818901 -3.3755194518535885 16.934130120425092 143 130 114 0.13393800865754507 2 500 4 225
287 -1.7830751112038177 -3.2731106812312083 16.371174310602886 99 90 83 0.94038460074268682 2 504 4 534 1 488 3 270
592 -1.279060414350665 -1.1695517286645445 17.388108487821082 81 58 38 0.74812513021347993 2 1167 3 927
289 8.4145189558943869 -3.5992239643300232 18.030554375931832 128 106 86 0.050708865723522269 2 507 4 322
291 10.955840889005215 -3.3232849346302813 16.964310424282353 90 78 67 1.1672835176393808 2 511 4 272 3 428
1618 -2.719415288883964 6.3455645827391294 14.947637905677961 173 144 111 0.62263212502029319 2 4515 4 3951
596 11.492365646787466 -1.0649444094372629 16.515800078951582 125 117 108 0.084136183485994248 2 1179 4 1020
293 -2.2792922267535802 -3.2246657876790459 16.266856246511527 97 77 62 0.10451399368363487 2 514 4 538
1991 2.2505475297920237 3.2643128232232641 64.573424214852992 135 95 60 0.43121146030282409 2 2245 4 2348 1 2064
295 0.47659990604098079 -3.767564628267821 18.80275774107411 96 63 35 0.15237705147404468 2 518 4 470
600 11.917747382244986 -1.0474044828858502 16.46015748605998 134 115 99 1.6572101337118479 2 1185 4 1021 3 972
297 11.090464094458216 -3.3374683862255177 16.955861078061059 111 105 93 1.1375385820614519 2 520 4 241 3 434
299 -4.9191196762134979 -3.1721154143938666 16.034850802026988 118 113 113 0.38333803288166618 2 524 4 586 1 524
1626 3.7866892082506132 -5.8752421689389562 18.217765206443456 157 140 125 1.5620920802183278 2 25 1 25 3 22
604 10.003354960701873 -1.1265259413284634 18.139325028211168 120 90 61 0.11262127514755238 2 1195 4 1087
301 -2.8655667132436982 -3.1469003957413908 16.007301583741434 75 70 66 0.92990989037957283 2 526 4 553 1 509 3 281
672 -3.0446384164251721 -0.24143234893658949 14.728790420689156 124 95 70 1.0585146260029412 2 1430 4 1382 1 1216 3 1512
307 0.46906880540237206 -3.602165053293644 18.457810915220406 105 90 78 2.4353087120322727 2 541 4 509 1 498
1698 -5.0540939349627214 -3.0184221851021689 16.105501565338727 139 114 88 0.12745044838749531 2 579 1 568
676 11.40085053596111 -0.26975775779274525 16.174435414294582 59 51 46 0.20863444653358265 2 1456 4 1401
309 -3.8218173417821935 -3.0837793213766678 16.013138318196386 163 146 127 0.59873251712165676 2 545 4 587 1 540
2007 -2.7510925478624122 2.8611914767690165 47.684307121875506 163 144 119 0.5066435522603927 4 2342 1 2103
311 10.334702115690327 -3.1769491488315214 16.902193233580583 110 86 62 0.89263235689111486 2 556 4 325 3 451
680 11.876558783041865 -0.22283960549545198 16.085942464790154 131 108 85 0.43685897943061702 2 1482 4 1431
313 11.52899866611642 -3.1971621589813473 16.894540234696489 130 112 93 0.83827193675528999 2 558 4 282 3 477
315 10.684744586742626 -3.1485500935666888 16.830927108536315 118 104 87 0.66491923181785728 2 564 4 315 3 463
1706 -2.7714306595699676 -2.7049828084990799 15.921189790061698 201 183 167 1.0938680101106535 2 655 1 630 3 378
684 -2.3532909233137751 -0.18153078140994736 15.857841319179999 71 47 30 0.35950204749809811 2 1494 4 1438 1 1277
2015 11.012416057878822 3.0587257866133211 57.202960498351807 205 190 171 0.82829028741950594 2 2251 1 2116 3 1643
319 -1.774923494236504 -3.0993378758516057 16.360494548633675 57 49 42 0.94479352207294731 2 568 4 565 1 531 3 315
752 -2.6206269406824663 0.49058414008110568 18.80728578355248 92 66 47 1.1038820269889518 2 1868 4 1792
321 9.8630736010575877 -3.1407186129764044 16.957793430519466 188 172 152 0.63502012742450109 2 570 4 349 3 462
323 11.023891464078318 -3.1482567450691095 16.898176934941116 186 174 158 0.97220849180051061 2 574 4 305 3 472
1778 1.3255703339090523 -1.5978580912777567 73.812026636532352 153 144 121 0.76464249863494416 2 1611 4 1684 1 1420
756 -2.4941326069594005 0.49931557397637832 19.71923134808349 68 49 32 0.60047538922085453 2 1893 4 1793 1 1635
325 -2.1534620847369164 -2.9623870091823576 15.911929856155764 85 80 74 0.6594113144483551 2 577 4 589 1 549 3 330
327 -3.2470712220130089 -2.9780181723954144 15.818840856370263 141 124 108 2.2708780646311957 2 581 4 617 1 541 2 554
760 -2.4263709319792635 0.61710825629320454 16.642168007700768 83 64 49 1.1535383106365991 2 1939 4 1803 1 1708
329 11.44864525164884 -3.0940922404937834 16.943576996149918 78 76 71 0.013075463140628813 2 585 4 317
331 11.977776836297039 -3.0727026136379711 16.868117340950253 83 67 53 0.55573192154937057 2 593 4 300
1786 -2.8571825539528262 0.20012097967494355 15.066687282319402 115 79 49 0.74317461682843067 2 1704 1 1457 3 1755
764 -2.4555842812687891 0.63938203235557145 15.586417342078773 109 77 53 0.37340779906566385 2 1960 4 1815
333 9.4888152299167867 -3.0333385255595093 16.871553611545469 133 115 99 0.10786418735525577 2 595 4 375 3 481
335 10.925445103367347 -2.985247285049526 16.680127991248757 191 173 154 0.41608441091656012 2 599 4 341
704 11.269010450152599 -0.064437528523896295 16.186444946788264 122 107 92 0.24891192012176569 2 1571 4 1534 3 1351
337 -1.7468262570395485 -2.9224151070718247 16.140170855155091 42 37 31 1.514725411158349 2 604 4 590
1062 10.876757020126211 3.1737167316972763 16.068011085087203 190 167 140 1.0523811722292455 2 3200 4 3477 3 2487
339 11.120432979375288 -2.9557784959636799 16.626291213326486 135 121 108 0.44991266320945777 2 608 4 342
1730 -3.6775649778739217 -1.1767617617396458 14.521150573494408 70 70 65 0.95824347634232954 2 1084 1 958 3 901
708 -3.3045973787765637 0.024233979072001931 14.90570886867483 66 52 42 1.7056135578248779 2 1596 4 1505 1 1363 3 1679 1 1362
341 10.362880678582831 -2.8581096858877126 16.475593115800983 125 117 105 0.29745372835114259 4 382 3 516
343 10.752807503517946 -2.9288528132824734 16.640002189709662 202 187 167 0.97711600442703583 2 618 4 356
1060 -2.9064734864780788 3.9422104391613084 20.24584577527725 17 16 12 0.41894589015622724 2 3190 4 3011
553 11.025693188183206 -1.3757678364344319 16.45259664809489 211 196 178 0.4826771463288908 2 1081 4 888 3 853
344 11.366666692261301 -2.919315466375271 16.771374280477946 38 37 34 1.5109200061754127 2 619 4 363 3 508
712 -2.3787247819833639 -0.012271286586892397 16.354414316000732 77 57 41 0.66342984782295478 2 1604 4 1516 1 1364
345 11.953641014436986 -2.9614854643166022 16.856961413223246 83 72 58 0.68897888863800405 2 620 4 335 3 517
